# .PCD v0.7 - Point Cloud Data file format
VERSION 0.7
FIELDS x y z
SIZE 4 4 4
TYPE F F F
COUNT 1 1 1
WIDTH 1430
HEIGHT 1
VIEWPOINT 0 0 0 1 0 0 0
POINTS 1430
DATA ascii
0.28124088 -0.15531778 1.077
0.281232 -0.15823339 1.077
0.28122306 -0.16114879 1.077
0.28121403 -0.16406393 1.077
0.28068274 -0.16666877 1.075
0.28067359 -0.16957805 1.075
0.28092551 -0.17264757 1.0760001
0.28117728 -0.17572223 1.077
0.28142905 -0.17880215 1.0780001
0.27912918 -0.14991102 1.08
0.27782816 -0.1521277 1.075
0.27756086 -0.15489398 1.074
0.27755198 -0.15780155 1.074
0.27780139 -0.16085853 1.075
0.27779233 -0.16376834 1.075
0.27726641 -0.16636783 1.0730001
0.2772572 -0.16927174 1.0730001
0.27750632 -0.17233589 1.074
0.27775538 -0.17540523 1.075
0.27748767 -0.17814805 1.074
0.27519321 -0.14936452 1.0760001
0.27467287 -0.151995 1.074
0.27440828 -0.15475866 1.0730001
0.27439934 -0.1576636 1.0730001
0.27490172 -0.16086759 1.075
0.27463686 -0.16362512 1.074
0.27360487 -0.16591184 1.0700001
0.27279696 -0.14965095 1.0780001
0.27278808 -0.15256999 1.0780001
0.27176693 -0.15491185 1.074
0.23375374 -0.14384383 0.94400007
0.2334979 -0.146244 0.94300002
0.23324202 -0.14863855 0.94200003
0.23298611 -0.15102746 0.94100004
0.23297778 -0.15357395 0.94100004
0.23123083 -0.13618471 0.94400007
0.23048797 -0.13829978 0.94100004
0.22974512 -0.14039841 0.93800002
0.22973697 -0.14293772 0.93800002
0.22948386 -0.14532171 0.93700004
0.22972052 -0.14801566 0.93800002
0.22971219 -0.15055428 0.93800002
0.22945894 -0.15292951 0.93700004
0.22945051 -0.15546501 0.93700004
0.22944205 -0.15800029 0.93700004
0.23016812 -0.16104932 0.94000006
0.22943394 -0.12893154 0.94700003
0.22869934 -0.13107988 0.94400007
0.22820693 -0.13335328 0.94200003
0.22771445 -0.13561562 0.94000006
0.22746418 -0.1380139 0.93900007
0.22697163 -0.14025682 0.93700004
0.22672126 -0.14264113 0.93600005
0.22647081 -0.14501974 0.93500006
0.22646254 -0.14755055 0.93500006
0.22693861 -0.15040216 0.93700004
0.22668803 -0.15277469 0.93600005
0.22667956 -0.15530753 0.93600005
0.2264289 -0.15767153 0.93500006
0.22690468 -0.16054387 0.93700004
0.22713825 -0.1632528 0.93800002
0.22785604 -0.1663204 0.94100004
0.22712566 -0.1265076 0.94800007
0.22615957 -0.12853089 0.94400007
0.22543304 -0.13067114 0.94100004
0.22518559 -0.13307807 0.94000006
0.22445896 -0.13519078 0.93700004
0.22347654 -0.1421921 0.93300003
0.22322881 -0.14456266 0.93200004
0.22346006 -0.14724323 0.93300003
0.22369121 -0.14992899 0.93400002
0.22344331 -0.15229346 0.93300003
0.22367431 -0.15498415 0.93400002
0.2239053 -0.15768005 0.93500006
0.22437565 -0.16055249 0.93700004
0.22436701 -0.16308738 0.93700004
0.22459778 -0.16579881 0.93800002
0.22554681 -0.16905387 0.94200003
0.22481164 -0.12407781 0.94900006
0.22385639 -0.12611495 0.94500005
0.22290112 -0.1281302 0.94100004
0.22241956 -0.13040127 0.93900007
0.22193794 -0.13266127 0.93700004
0.22095005 -0.14472605 0.93300003
0.22094175 -0.14725156 0.93300003
0.22069657 -0.1496163 0.93200004
0.22045135 -0.15197541 0.93100005
0.22044288 -0.15449482 0.93100005
0.22067113 -0.15718265 0.93200004
0.22137286 -0.16021839 0.93500006
0.22160096 -0.16292198 0.93600005
0.22206573 -0.16580753 0.93800002
0.22276722 -0.16888317 0.94100004
0.22084488 -0.12330095 0.94300002
0.22013466 -0.12545535 0.94000006
0.21989276 -0.12786564 0.93900007
0.21941657 -0.13013136 0.93700004
0.21940868 -0.1326692 0.93700004
0.21820563 -0.14205608 0.93200004
0.21772914 -0.14426894 0.93000007
0.21795495 -0.14694424 0.93100005
0.21771249 -0.14930364 0.93000007
0.21723585 -0.15149412 0.92800003
0.21746148 -0.15417144 0.92900002
0.21768703 -0.15685391 0.93000007
0.21838062 -0.15988427 0.93300003
0.21884009 -0.16275661 0.93500006
0.21929945 -0.1656395 0.93700004
0.2199928 -0.1687125 0.94000006
0.22045203 -0.1716193 0.94200003
0.21900129 -0.12113759 0.94600004
0.2178362 -0.12304703 0.94100004
0.21736559 -0.12532957 0.93900007
0.21689488 -0.12760106 0.93700004
0.21642414 -0.12986144 0.93500006
0.21548246 -0.134349 0.93100005
0.21547441 -0.13687019 0.93100005
0.21546631 -0.13939115 0.93100005
0.21568954 -0.14206432 0.93200004
0.21521844 -0.14427722 0.93000007
0.21497868 -0.1466369 0.92900002
0.21450754 -0.1488304 0.92700005
0.2147305 -0.15150258 0.92800003
0.21495338 -0.15417995 0.92900002
0.21517622 -0.15686248 0.93000007
0.21563034 -0.15972157 0.93200004
0.21585299 -0.16241714 0.93300003
0.21653834 -0.16547149 0.93600005
0.2169922 -0.16836233 0.93800002
0.2172147 -0.17108159 0.93900007
0.21576081 -0.12076095 0.94300002
0.21506685 -0.12292389 0.94000006
0.2143728 -0.1250703 0.93700004
0.21390752 -0.12733644 0.93500006
0.21344218 -0.12959151 0.93300003
0.21320553 -0.13197707 0.93200004
0.21274006 -0.13421267 0.93000007
0.21250328 -0.13658422 0.92900002
0.21249516 -0.13909984 0.92900002
0.212487 -0.14161524 0.92900002
0.21225002 -0.14397521 0.92800003
0.2117843 -0.14617172 0.92600006
0.21177591 -0.14867823 0.92600006
0.21199618 -0.15134777 0.92700005
0.21244504 -0.15418847 0.92900002
0.21266517 -0.15687108 0.93000007
0.2128852 -0.15955883 0.93100005
0.21310516 -0.16225177 0.93200004
0.21355371 -0.16512668 0.93400002
0.21377356 -0.16783269 0.93500006
0.2144506 -0.17090824 0.93800002
0.21367419 -0.1184636 0.94500005
0.21298839 -0.12064041 0.94200003
0.21207644 -0.12266992 0.93800002
0.21161662 -0.12494449 0.93600005
0.21115674 -0.12720801 0.93400002
0.21092287 -0.12959935 0.93300003
0.21046285 -0.13184339 0.93100005
0.21022883 -0.13422067 0.93000007
0.2097687 -0.13644527 0.92800003
0.20976059 -0.13895825 0.92800003
0.20975241 -0.14147101 0.92800003
0.20974414 -0.1439835 0.92800003
0.20928381 -0.14618005 0.92600006
0.20927542 -0.14868662 0.92600006
0.20949298 -0.15135625 0.92700005
0.20993643 -0.15419701 0.92900002
0.20970188 -0.15654232 0.92800003
0.20991921 -0.15922472 0.92900002
0.20991053 -0.16173819 0.92900002
0.21080559 -0.16495866 0.93300003
0.21124868 -0.16784152 0.93500006
0.21236943 -0.17128158 0.94000006
0.21045196 -0.11809494 0.94200003
0.20977429 -0.1202637 0.93900007
0.20887317 -0.12228517 0.93500006
0.20864214 -0.12468518 0.93400002
0.2081877 -0.12694338 0.93200004
0.20795652 -0.12932937 0.93100005
0.20750193 -0.13156804 0.92900002
0.20727062 -0.13394001 0.92800003
0.20726259 -0.13645333 0.92800003
0.20747782 -0.13911615 0.92900002
0.20724629 -0.14147922 0.92800003
0.20701471 -0.14383665 0.92700005
0.20655978 -0.14603053 0.92500007
0.20655139 -0.14853446 0.92500007
0.20698954 -0.15136473 0.92700005
0.2072043 -0.15403961 0.92800003
0.2071957 -0.1565509 0.92800003
0.20718707 -0.15906198 0.92800003
0.20695512 -0.16139869 0.92700005
0.20761615 -0.16443701 0.93000007
0.20827706 -0.16749132 0.93300003
0.20960757 -0.17110829 0.93900007
0.20946012 -0.11640765 0.94900006
0.20768704 -0.11797697 0.94100004
0.20701747 -0.12014309 0.93800002
0.20634785 -0.12229272 0.93500006
0.20611954 -0.12469285 0.93400002
0.20567049 -0.12695111 0.93200004
0.20544203 -0.12933721 0.93100005
0.20477216 -0.13143432 0.92800003
0.20454359 -0.13380367 0.92700005
0.20453556 -0.13631436 0.92700005
0.20452745 -0.13882481 0.92700005
0.20451927 -0.14133501 0.92700005
0.20429039 -0.14368977 0.92600006
0.20406148 -0.14603886 0.92500007
0.20383249 -0.14838229 0.92400002
0.20404464 -0.15104665 0.92500007
0.20447728 -0.15388216 0.92700005
0.20468926 -0.15655951 0.92800003
0.20446007 -0.15889923 0.92700005
0.20467193 -0.1615815 0.92800003
0.20510429 -0.16444579 0.93000007
0.20575707 -0.16750015 0.93300003
0.20685083 -0.17093498 0.93800002
0.2064606 -0.11616964 0.94700003
0.20536318 -0.11810976 0.94200003
0.20448372 -0.12015058 0.93800002
0.20382224 -0.1223003 0.93500006
0.20337863 -0.12456699 0.93300003
0.20293501 -0.12682264 0.93100005
0.20249128 -0.12906715 0.92900002
0.20204751 -0.1313006 0.92700005
0.20182163 -0.13366729 0.92600006
0.2022495 -0.13646947 0.92800003
0.20202345 -0.13883294 0.92700005
0.20223318 -0.1414957 0.92800003
0.20200704 -0.14385326 0.92700005
0.20178078 -0.14620511 0.92600006
0.20133658 -0.1483907 0.92400002
0.20132816 -0.15089181 0.92400002
0.20153753 -0.1535587 0.92500007
0.20196471 -0.15639944 0.92700005
0.20217392 -0.15907933 0.92800003
0.20238307 -0.16176435 0.92900002
0.20259216 -0.16445456 0.93000007
0.20301902 -0.16732948 0.93200004
0.20388146 -0.17057943 0.93600005
0.20390223 -0.11617698 0.94700003
0.20324893 -0.11836794 0.94400007
0.20238025 -0.12041426 0.94000006
0.20151155 -0.12243866 0.93600005
0.20107338 -0.12470816 0.93400002
0.20106566 -0.12723903 0.93400002
0.20041211 -0.12935285 0.93100005
0.20018898 -0.13173343 0.93000007
0.19975051 -0.13396396 0.92800003
0.19995774 -0.1366246 0.92900002
0.19973439 -0.13899086 0.92800003
0.19972621 -0.14150393 0.92800003
0.19950271 -0.14386153 0.92700005
0.1992792 -0.14621347 0.92600006
0.19905563 -0.14855972 0.92500007
0.19840162 -0.15057366 0.92200005
0.19860831 -0.15323521 0.92300004
0.19881491 -0.15590188 0.92400002
0.1998821 -0.15925944 0.92900002
0.20030369 -0.16212137 0.93100005
0.20051005 -0.16481704 0.93200004
0.20050123 -0.16733833 0.93200004
0.20113774 -0.17040609 0.93500006
0.20113085 -0.1160616 0.94600004
0.20048568 -0.11824993 0.94300002
0.19962786 -0.12029364 0.93900007
0.19898254 -0.12244622 0.93600005
0.19854978 -0.12471581 0.93400002
0.19854209 -0.12724678 0.93400002
0.19810921 -0.12949961 0.93200004
0.19767621 -0.13174132 0.93000007
0.19724318 -0.13397194 0.92800003
0.1974477 -0.13663267 0.92900002
0.19722706 -0.13899899 0.92800003
0.19700639 -0.14135966 0.92700005
0.19678561 -0.14371462 0.92600006
0.1963523 -0.145906 0.92400002
0.19634394 -0.1484075 0.92400002
0.19612302 -0.15074544 0.92300004
0.19611453 -0.15324371 0.92300004
0.19631845 -0.15591045 0.92400002
0.19737211 -0.1592681 0.92900002
0.19778831 -0.16213012 0.93100005
0.19799198 -0.16482584 0.93200004
0.19798315 -0.16734715 0.93200004
0.19861156 -0.17041501 0.93500006
0.19857445 -0.11606889 0.94600004
0.19772752 -0.11813192 0.94200003
0.1970904 -0.1203011 0.93900007
0.19624335 -0.12232292 0.93500006
0.19602589 -0.12472344 0.93400002
0.1960182 -0.12725453 0.93400002
0.19559072 -0.12950742 0.93200004
0.19516318 -0.13174921 0.93000007
0.19473554 -0.13397989 0.92800003
0.19472754 -0.13649365 0.92800003
0.19471945 -0.13900712 0.92800003
0.19429167 -0.14121537 0.92600006
0.19407362 -0.1435677 0.92500007
0.19364573 -0.14575639 0.92300004
0.1936374 -0.14825529 0.92300004
0.19341919 -0.15059054 0.92200005
0.19362047 -0.15325221 0.92300004
0.19403149 -0.15608779 0.92500007
0.19465214 -0.15910535 0.92800003
0.19527268 -0.16213886 0.93100005
0.19547366 -0.16483466 0.93200004
0.19546482 -0.16735601 0.93200004
0.19587539 -0.17024165 0.93400002
0.19622491 -0.11619886 0.94700003
0.19518158 -0.11813926 0.94200003
0.19413824 -0.1200523 0.93700004
0.19350919 -0.12219961 0.93400002
0.19308729 -0.12446397 0.93200004
0.19307967 -0.12698974 0.93200004
0.1926576 -0.12923729 0.93000007
0.19244263 -0.13161542 0.92900002
0.19222759 -0.13398784 0.92800003
0.19201246 -0.1363546 0.92700005
0.19200443 -0.13886547 0.92700005
0.19158204 -0.14107104 0.92500007
0.19136672 -0.14342071 0.92400002
0.19094427 -0.14560679 0.92200005
0.19114304 -0.14826366 0.92300004
0.1913417 -0.15092564 0.92400002
0.19154032 -0.15359282 0.92500007
0.19173883 -0.15626511 0.92600006
0.19235137 -0.15928546 0.92900002
0.19254974 -0.16197346 0.93000007
0.19274803 -0.16466658 0.93100005
0.19294623 -0.16736487 0.93200004
0.19376545 -0.17061512 0.93600005
0.1936651 -0.11620612 0.94700003
0.19263531 -0.11814661 0.94200003
0.19160551 -0.12005971 0.93700004
0.19098461 -0.12220711 0.93400002
0.19077259 -0.12460509 0.93300003
0.19096944 -0.12726995 0.93400002
0.19055279 -0.12952299 0.93200004
0.19013609 -0.13176495 0.93000007
0.18992375 -0.13414016 0.92900002
0.1895069 -0.13636261 0.92700005
0.18929446 -0.13872375 0.92600006
0.18908191 -0.14107919 0.92500007
0.18886934 -0.14342895 0.92400002
0.18845227 -0.14561506 0.92200005
0.18864836 -0.14827201 0.92300004
0.18904874 -0.15109745 0.92500007
0.18944901 -0.15393344 0.92700005
0.18944046 -0.15644245 0.92700005
0.18984056 -0.15929413 0.92900002
0.18983185 -0.16180798 0.92900002
0.19023181 -0.16467534 0.93100005
0.19063164 -0.16755326 0.93300003
0.19164437 -0.1709886 0.93800002
0.19110496 -0.11621336 0.94700003
0.19008872 -0.11815391 0.94200003
0.18927422 -0.12019522 0.93800002
0.18886322 -0.12247629 0.93600005
0.18885569 -0.12501335 0.93600005
0.18864632 -0.1274139 0.93500006
0.18823507 -0.12966974 0.93300003
0.18742029 -0.13163109 0.92900002
0.18741243 -0.13414808 0.92900002
0.18700103 -0.13637058 0.92700005
0.186993 -0.13888161 0.92700005
0.18678319 -0.14123985 0.92600006
0.18657334 -0.14359239 0.92500007
0.1861617 -0.14578126 0.92300004
0.18635508 -0.148441 0.92400002
0.18695174 -0.15143257 0.92700005
0.18754828 -0.15444015 0.93000007
0.18753971 -0.15695733 0.93000007
0.18773274 -0.15964571 0.93100005
0.18732078 -0.16181667 0.92900002
0.18791695 -0.16486099 0.93200004
0.1883114 -0.16774169 0.93400002
0.18874355 -0.11634331 0.94800007
0.18774083 -0.11828665 0.94300002
0.18693715 -0.12033075 0.93900007
0.18673068 -0.12274547 0.93800002
0.18692224 -0.12542164 0.93900007
0.18651646 -0.12769412 0.93700004
0.18591161 -0.12981647 0.93400002
0.18510768 -0.13178059 0.93000007
0.18490079 -0.13415597 0.92900002
0.18489286 -0.13667279 0.92900002
0.18488486 -0.13918932 0.92900002
0.18447876 -0.14140052 0.92700005
0.1842716 -0.14375581 0.92600006
0.18406439 -0.14610542 0.92500007
0.1840561 -0.14861 0.92500007
0.18444568 -0.15144099 0.92700005
0.18503413 -0.15444866 0.93000007
0.1850256 -0.15696591 0.93000007
0.18521594 -0.15965435 0.93100005
0.18520728 -0.16217375 0.93100005
0.18559642 -0.16504665 0.93300003
0.18598548 -0.16793011 0.93500006
0.18657273 -0.11659597 0.95000005
0.18558356 -0.11854482 0.94500005
0.18479072 -0.12059441 0.94100004
0.18458693 -0.12301466 0.94000006
0.18457945 -0.12556277 0.94000006
0.18398277 -0.12770176 0.93700004
0.18338606 -0.12982419 0.93400002
0.1827893 -0.13193008 0.93100005
0.18297778 -0.13459709 0.93200004
0.18296985 -0.13712212 0.93200004
0.18256922 -0.1393472 0.93000007
0.18216856 -0.14156117 0.92800003
0.18196411 -0.14391924 0.92700005
0.18175963 -0.14627162 0.92600006
0.18194763 -0.14893964 0.92700005
0.1823318 -0.15177615 0.92900002
0.18251964 -0.15445714 0.93000007
0.1827074 -0.15714325 0.93100005
0.1826988 -0.15966296 0.93100005
0.18288642 -0.16235663 0.93200004
0.18346637 -0.16540921 0.93500006
0.18419707 -0.11672589 0.95100003
0.18302776 -0.11855207 0.94500005
0.18243943 -0.12072991 0.94200003
0.1822384 -0.12315298 0.94100004
0.18203726 -0.12557031 0.94000006
0.18164237 -0.12784567 0.93800002
0.18124743 -0.13010989 0.93600005
0.18104607 -0.1325047 0.93500006
0.18103825 -0.13503824 0.93500006
0.18083671 -0.13742435 0.93400002
0.1804415 -0.1396549 0.93200004
0.18004625 -0.14187436 0.93000007
0.17965095 -0.14408267 0.92800003
0.17964277 -0.14659579 0.92800003
0.17982805 -0.14926928 0.92900002
0.1800133 -0.15194793 0.93000007
0.18019843 -0.15463169 0.93100005
0.18038349 -0.15732057 0.93200004
0.18056846 -0.16001457 0.93300003
0.1809469 -0.1628879 0.93500006
0.18132524 -0.16577177 0.93700004
0.18170351 -0.1686662 0.93900007
0.18200661 -0.11697855 0.95300007
0.18085353 -0.11881021 0.94700003
0.18027335 -0.12099357 0.94400007
0.17988406 -0.12329125 0.94200003
0.17968567 -0.12571141 0.94100004
0.17929623 -0.12798958 0.93900007
0.17909767 -0.13039561 0.93800002
0.17870809 -0.1326542 0.93600005
0.17870028 -0.13519053 0.93600005
0.1786924 -0.13772658 0.93600005
0.1783026 -0.13996261 0.93400002
0.17791277 -0.14218755 0.93200004
0.1775229 -0.14440133 0.93000007
0.17751473 -0.14691994 0.93000007
0.17731562 -0.14927757 0.92900002
0.17768905 -0.15211968 0.93100005
0.17787151 -0.15480624 0.93200004
0.17824471 -0.1576667 0.93400002
0.178427 -0.16036618 0.93500006
0.17899087 -0.16341923 0.93800002
0.17917301 -0.16613437 0.93900007
0.17847988 -0.11894289 0.94800007
0.17790782 -0.12112905 0.94500005
0.17771225 -0.12356044 0.94400007
0.1773283 -0.1258525 0.94200003
0.17694432 -0.12813345 0.94000006
0.17656024 -0.13040325 0.93800002
0.17636435 -0.13280366 0.93700004
0.17635657 -0.13534281 0.93700004
0.1761605 -0.13773449 0.93600005
0.17615257 -0.14027032 0.93600005
0.17595635 -0.14265332 0.93500006
0.17557189 -0.14487526 0.93300003
0.17537558 -0.14724411 0.93200004
0.17536736 -0.14976792 0.93200004
0.1755472 -0.15245481 0.93300003
0.17553884 -0.15498075 0.93300003
0.17571853 -0.15767519 0.93400002
0.1762744 -0.16071779 0.93700004
0.17664206 -0.16360208 0.93900007
0.17700961 -0.16649692 0.94100004
0.17684266 -0.11957743 0.95300007
0.17627874 -0.12177723 0.95000005
0.17571476 -0.12396048 0.94700003
0.17515074 -0.12612717 0.94400007
0.17458662 -0.1282773 0.94100004
0.17402248 -0.13041086 0.93800002
0.17382932 -0.13281135 0.93700004
0.17363609 -0.13520615 0.93600005
0.17362829 -0.13774237 0.93600005
0.17380586 -0.14042816 0.93700004
0.1734269 -0.14266135 0.93500006
0.1730479 -0.14488336 0.93300003
0.17285432 -0.14725228 0.93200004
0.1734025 -0.15025827 0.93500006
0.17339423 -0.15278997 0.93500006
0.17320044 -0.15515524 0.93400002
0.17319204 -0.15768366 0.93400002
0.17392525 -0.16089787 0.93800002
0.17447294 -0.16395918 0.94100004
0.1748351 -0.16685951 0.94300002
0.17443937 -0.12229727 0.95400006
0.17370069 -0.12436054 0.95000005
0.17277911 -0.12626819 0.94500005
0.17204036 -0.12828481 0.94100004
0.17166717 -0.13055749 0.93900007
0.17165957 -0.13310252 0.93900007
0.17146906 -0.1355028 0.93800002
0.17127848 -0.13789737 0.93700004
0.17163619 -0.14073583 0.93900007
0.17126265 -0.14297451 0.93700004
0.17107186 -0.14535731 0.93600005
0.17088103 -0.14773442 0.93500006
0.1714211 -0.15074863 0.93800002
0.17141284 -0.15328851 0.93800002
0.17122178 -0.155662 0.93700004
0.17103066 -0.15802974 0.93600005
0.17138766 -0.16090636 0.93800002
0.17174457 -0.16379355 0.94000006
0.17246675 -0.16704512 0.94400007
0.17239785 -0.12268912 0.95700002
0.17148985 -0.12462968 0.95200002
0.17094213 -0.12681009 0.94900006
0.17021419 -0.12883762 0.94500005
0.16984645 -0.1311212 0.94300002
0.16929854 -0.13325192 0.94000006
0.16911079 -0.135655 0.93900007
0.16892293 -0.13805233 0.93800002
0.16909522 -0.14074375 0.93900007
0.16890721 -0.14313507 0.93800002
0.16871916 -0.14552066 0.93700004
0.1687111 -0.14805853 0.93700004
0.16870297 -0.15059611 0.93700004
0.1688748 -0.15329678 0.93800002
0.16886652 -0.15583646 0.93800002
0.16903818 -0.15854466 0.93900007
0.1693898 -0.16142951 0.94100004
0.16974129 -0.16432483 0.94300002
0.17027271 -0.16740768 0.94600004
0.16909043 -0.1247679 0.95300007
0.16872826 -0.12708472 0.95100003
0.16818862 -0.12925407 0.94800007
0.16800371 -0.13168494 0.94700003
0.16728656 -0.1336848 0.94300002
0.16692412 -0.13595161 0.94100004
0.16673905 -0.13835447 0.94000006
0.16673125 -0.14090149 0.94000006
0.166546 -0.14329562 0.93900007
0.16653806 -0.14583929 0.93900007
0.16653004 -0.14838266 0.93900007
0.16652192 -0.15092571 0.93900007
0.16669109 -0.15363191 0.94000006
0.16650553 -0.15601091 0.93900007
0.16702914 -0.15905957 0.94200003
0.16719805 -0.16178104 0.94300002
0.16772148 -0.16485618 0.94600004
0.16720939 -0.12529886 0.95700002
0.16685264 -0.12762663 0.95500004
0.16649584 -0.12994325 0.95300007
0.16613896 -0.1322487 0.95100003
0.16560735 -0.13440123 0.94800007
0.16507567 -0.13653721 0.94500005
0.16471861 -0.13880378 0.94300002
0.16436152 -0.14105919 0.94100004
0.16417904 -0.1434561 0.94000006
0.16417114 -0.14600258 0.94000006
0.16433778 -0.14870675 0.94100004
0.16432972 -0.15125529 0.94100004
0.1643216 -0.15380353 0.94100004
0.16413876 -0.1561853 0.94000006
0.16482894 -0.15940563 0.94400007
0.16534437 -0.16247573 0.94700003
0.16620888 -0.1659103 0.95200002
0.16461098 -0.12790121 0.95700002
0.16408764 -0.130087 0.95400006
0.16390823 -0.13253434 0.95300007
0.16372871 -0.13497591 0.95200002
0.16337717 -0.13726726 0.95000005
0.16302556 -0.13954748 0.94800007
0.16301782 -0.14211635 0.94800007
0.16283803 -0.14453228 0.94700003
0.16265818 -0.14694245 0.94600004
0.16247827 -0.1493469 0.94500005
0.16264214 -0.15206711 0.94600004
0.16263403 -0.15462895 0.94600004
0.16262583 -0.1571905 0.94600004
0.16296138 -0.16008942 0.94800007
0.16329683 -0.16299886 0.95000005
0.1623508 -0.1307762 0.95900005
0.16217412 -0.13323717 0.95800006
0.16182807 -0.1355506 0.95600003
0.1618205 -0.13814189 0.95600003
0.16147432 -0.14043842 0.95400006
0.16163582 -0.14317353 0.95500004
0.16128953 -0.14545591 0.95300007
0.16128162 -0.14803775 0.95300007
0.16093518 -0.15030317 0.95100003
0.16075793 -0.1527182 0.95000005
0.16074982 -0.15529093 0.95000005
0.16091087 -0.15802954 0.95100003
0.16124101 -0.16094208 0.95300007
0.16157107 -0.16386515 0.95500004
0.16007197 -0.13626707 0.96100003
0.15989786 -0.13872749 0.96000004
0.15955712 -0.14103495 0.95800006
0.15988252 -0.14393094 0.96000004
0.15954162 -0.1462269 0.95800006
0.15953377 -0.14882238 0.95800006
0.15902624 -0.15094335 0.95500004
0.15901823 -0.15353003 0.95500004
0.15884367 -0.15595293 0.95400006
0.15916851 -0.15886861 0.95600003
0.18269959 -0.15682155 1.1730001
0.18237956 -0.15972999 1.171
0.18190371 -0.16248806 1.1680001
0.18142778 -0.16522944 1.1650001
0.18079606 -0.16780962 1.161
0.18016431 -0.1703677 1.1570001
0.1795205 -0.15682997 1.1730001
0.17905296 -0.15960214 1.1700001
0.17858532 -0.16235757 1.1670001
0.17827065 -0.16523816 1.1650001
0.1779559 -0.16810752 1.1630001
0.17764105 -0.1709656 1.161
0.17732616 -0.17381243 1.159
0.17747016 -0.17710608 1.1600001
0.17761403 -0.18040469 1.161
0.17745186 -0.18339212 1.1600001
0.17744261 -0.18653451 1.1600001
0.17773917 -0.1900035 1.1620001
0.1780356 -0.19348294 1.164
0.17634924 -0.15365644 1.1730001
0.17589001 -0.1564372 1.1700001
0.17543067 -0.15920129 1.1670001
0.17542225 -0.16236609 1.1670001
0.17511311 -0.1652468 1.1650001
0.17495416 -0.1682608 1.164
0.17449455 -0.1709744 1.161
0.17433546 -0.17397133 1.1600001
0.17447683 -0.17726776 1.161
0.17461811 -0.18056919 1.1620001
0.17445873 -0.1835594 1.161
0.1742993 -0.18654379 1.1600001
0.17444025 -0.18984935 1.161
0.17503189 -0.19365864 1.1650001
0.17287391 -0.15340255 1.171
0.1722753 -0.15604427 1.1670001
0.17211947 -0.15907319 1.166
0.17196356 -0.16209625 1.1650001
0.17195514 -0.16525532 1.1650001
0.17179899 -0.1682694 1.164
0.17134762 -0.17098314 1.161
0.17119133 -0.17398013 1.1600001
0.17118253 -0.17712398 1.1600001
0.1713212 -0.1804228 1.161
0.17116465 -0.18341041 1.1600001
0.17100801 -0.18639213 1.159
0.17114642 -0.1896951 1.1600001
0.17157976 -0.19333553 1.1630001
0.17186548 -0.19682284 1.1650001
0.16999663 -0.15049008 1.1730001
0.16926412 -0.15301757 1.1680001
0.16867644 -0.15565121 1.164
0.16852348 -0.15867212 1.1630001
0.16851526 -0.16182628 1.1630001
0.16850694 -0.16498004 1.1630001
0.16849853 -0.16813339 1.1630001
0.16805539 -0.17084447 1.1600001
0.16790192 -0.17383884 1.159
0.16760349 -0.17667468 1.1570001
0.16759473 -0.17981006 1.1570001
0.16758588 -0.18294501 1.1570001
0.1678666 -0.18640117 1.159
0.16814722 -0.18986776 1.161
0.16842772 -0.19334479 1.1630001
0.16870812 -0.19683215 1.1650001
0.16681558 -0.15049788 1.1730001
0.16609675 -0.15302546 1.1680001
0.16566223 -0.15579294 1.1650001
0.16551204 -0.15881665 1.164
0.16536175 -0.16183449 1.1630001
0.16506916 -0.16470461 1.161
0.16506088 -0.16785263 1.161
0.16476816 -0.17070568 1.159
0.16475967 -0.17384741 1.159
0.16432463 -0.17653063 1.156
0.16460028 -0.17997424 1.1580001
0.16444936 -0.18295386 1.1570001
0.1647248 -0.18641013 1.159
0.16485797 -0.18971328 1.1600001
0.16513316 -0.19318765 1.1620001
0.16526616 -0.19650346 1.1630001
0.16391312 -0.15076222 1.1750001
0.1630684 -0.15316428 1.169
0.16278163 -0.15606833 1.1670001
0.16249476 -0.15896109 1.1650001
0.1622078 -0.16184258 1.1630001
0.1617813 -0.16457094 1.1600001
0.16163364 -0.16757177 1.159
0.16134647 -0.17041945 1.1570001
0.16133811 -0.1735559 1.1570001
0.16091132 -0.17623375 1.154
0.16104223 -0.17951663 1.1550001
0.16103362 -0.18264633 1.1550001
0.16158256 -0.18641898 1.159
0.16157374 -0.18955864 1.159
0.16198303 -0.19319668 1.1620001
0.16197401 -0.1963436 1.1620001
0.16072579 -0.15076984 1.1750001
0.16017102 -0.15343402 1.171
0.15988974 -0.15634359 1.169
0.15960839 -0.1592419 1.1670001
0.15919021 -0.16198975 1.164
0.15863518 -0.16457903 1.1600001
0.15849033 -0.16757995 1.159
0.15807196 -0.17028041 1.156
0.15806371 -0.17341422 1.156
0.15791865 -0.17639491 1.1550001
0.15818368 -0.17983599 1.1570001
0.15803844 -0.18281306 1.156
0.15816656 -0.186106 1.1570001
0.15829454 -0.18940391 1.1580001
0.15869582 -0.1930393 1.161
0.15896031 -0.19652157 1.1630001
0.15767206 -0.15090567 1.176
0.15686014 -0.15331061 1.1700001
0.15671848 -0.15635128 1.169
0.15630859 -0.15911324 1.166
0.1560327 -0.16199762 1.164
0.15548865 -0.16458699 1.1600001
0.15534665 -0.16758801 1.159
0.15493651 -0.17028856 1.156
0.15492836 -0.17342246 1.156
0.15478615 -0.17640324 1.1550001
0.15504585 -0.17984442 1.1570001
0.15503745 -0.18297973 1.1570001
0.15502895 -0.18611458 1.1570001
0.15528835 -0.18957613 1.159
0.15554763 -0.19304809 1.161
0.15434982 -0.15078478 1.1750001
0.15394834 -0.15358019 1.1720001
0.1535468 -0.1563589 1.169
0.1532765 -0.1592574 1.1670001
0.1528748 -0.16200541 1.164
0.15260437 -0.16487864 1.1620001
0.15246518 -0.16788515 1.161
0.1521946 -0.17073852 1.159
0.15192395 -0.1735806 1.1570001
0.15204716 -0.17686965 1.1580001
0.15203895 -0.18000819 1.1580001
0.15216194 -0.18330443 1.159
0.15202227 -0.18628393 1.1580001
0.15240763 -0.18991186 1.161
0.15141849 -0.15104872 1.177
0.15076797 -0.15358758 1.1720001
0.15037465 -0.15636638 1.169
0.14998129 -0.15912849 1.166
0.14997372 -0.16229144 1.166
0.14958023 -0.16502827 1.1630001
0.14944386 -0.16803761 1.1620001
0.1493074 -0.17104109 1.161
0.14904229 -0.17388867 1.159
0.14903429 -0.17703049 1.159
0.14889765 -0.18001638 1.1580001
0.14914662 -0.18347089 1.1600001
0.1492669 -0.18677489 1.161
0.14964424 -0.19041106 1.164
0.14809808 -0.15092759 1.176
0.14771309 -0.15372589 1.1730001
0.14732806 -0.15650754 1.1700001
0.14719477 -0.15954539 1.169
0.14706139 -0.16257741 1.1680001
0.14680202 -0.16546164 1.166
0.14654258 -0.16833459 1.164
0.14628308 -0.17119625 1.1620001
0.14614937 -0.17419663 1.161
0.14601561 -0.17719123 1.1600001
0.14588179 -0.18017989 1.159
0.14637718 -0.18395355 1.1630001
0.14662072 -0.18742667 1.1650001
0.14673831 -0.19074661 1.166
0.14515235 -0.15119137 1.1780001
0.14465241 -0.15386413 1.174
0.14427562 -0.15664855 1.171
0.14402196 -0.15955275 1.169
0.14401461 -0.16272406 1.169
0.1437608 -0.16561109 1.1670001
0.1435069 -0.16848683 1.1650001
0.14312977 -0.17120394 1.1620001
0.14299889 -0.17420444 1.161
0.14274482 -0.17704633 1.159
0.1429833 -0.18049876 1.161
0.1433448 -0.18411979 1.164
0.14358304 -0.18759571 1.166
0.15127522 -0.1406354 1.2550001
0.15102744 -0.14381459 1.253
0.14195433 -0.15119834 1.1780001
0.14158587 -0.15400225 1.1750001
0.14133783 -0.15692326 1.1730001
0.1412102 -0.15996946 1.1720001
0.14108248 -0.16300979 1.171
0.14071374 -0.16576043 1.1680001
0.14046538 -0.16863896 1.166
0.14009652 -0.17135887 1.1630001
0.13996848 -0.17436214 1.1620001
0.13984039 -0.17735958 1.161
0.13995311 -0.18066207 1.1620001
0.14018618 -0.18412772 1.164
0.14029872 -0.18744285 1.1650001
0.14041115 -0.19076292 1.166
0.14799125 -0.13734201 1.256
0.14763133 -0.14041783 1.253
0.14738914 -0.14359172 1.251
0.14702903 -0.14663683 1.248
0.13922708 -0.1517186 1.182
0.13863128 -0.15427133 1.177
0.1383888 -0.15719785 1.1750001
0.13814622 -0.1601131 1.1730001
0.13802134 -0.16315623 1.1720001
0.13777861 -0.16605157 1.1700001
0.13753583 -0.16893564 1.1680001
0.1371752 -0.17166102 1.1650001
0.13693228 -0.17451976 1.1630001
0.13668929 -0.1773672 1.161
0.13679942 -0.18066977 1.1620001
0.13702719 -0.1841355 1.164
0.13713714 -0.18745071 1.1650001
0.13712931 -0.19060728 1.1650001
0.13735679 -0.19409601 1.1670001
0.14423442 -0.13702026 1.253
0.14399789 -0.14020012 1.251
0.14387634 -0.14348346 1.25
0.14363962 -0.14664349 1.248
0.13578051 -0.1546714 1.1800001
0.13542849 -0.15747234 1.177
0.13530651 -0.16052961 1.176
0.13495436 -0.16330254 1.1730001
0.13471718 -0.16620067 1.171
0.13447994 -0.16908751 1.169
0.13424262 -0.17196305 1.1670001
0.13400526 -0.17482728 1.1650001
0.13388284 -0.17783299 1.164
0.13399041 -0.18114381 1.1650001
0.13409784 -0.18445955 1.166
0.13409021 -0.18761936 1.166
0.1340825 -0.19077869 1.166
0.13441966 -0.19443655 1.169
0.14139868 -0.13415511 1.258
0.14094304 -0.13713582 1.2540001
0.14059965 -0.14020644 1.251
0.14048097 -0.1434899 1.25
0.14036216 -0.14676753 1.2490001
0.14001851 -0.14979883 1.2460001
0.13291307 -0.15507138 1.1830001
0.1325693 -0.15788054 1.1800001
0.13222547 -0.16067301 1.177
0.13199392 -0.16358796 1.1750001
0.13164997 -0.16634968 1.1720001
0.1315306 -0.16938394 1.171
0.13129885 -0.17226499 1.169
0.13117935 -0.1752848 1.1680001
0.13105977 -0.1782987 1.1670001
0.13116473 -0.18161774 1.1680001
0.13126957 -0.18494169 1.169
0.13126206 -0.18810971 1.169
0.13136676 -0.19144087 1.1700001
0.1378711 -0.13405445 1.2570001
0.13742641 -0.13703252 1.253
0.13709132 -0.14010054 1.25
0.13708514 -0.14349622 1.25
0.13696919 -0.14677395 1.2490001
0.13685311 -0.15004578 1.248
0.12969343 -0.15828866 1.1830001
0.12924823 -0.16095281 1.179
0.12902223 -0.16387326 1.177
0.12868656 -0.16664048 1.174
0.12846042 -0.16953562 1.1720001
0.12834382 -0.17256677 1.171
0.12833676 -0.17574216 1.171
0.12832962 -0.1789171 1.171
0.12832239 -0.18209153 1.171
0.12831508 -0.18526553 1.171
0.12852685 -0.18876088 1.1730001
0.12862894 -0.19210294 1.174
0.1343485 -0.13395365 1.256
0.13391483 -0.13692912 1.2520001
0.133588 -0.1399945 1.2490001
0.13358197 -0.14338759 1.2490001
0.13346884 -0.14666271 1.248
0.13335565 -0.14993197 1.2470001
0.1329215 -0.15282646 1.243
0.12658046 -0.16164206 1.184
0.12625311 -0.16443694 1.1810001
0.12603259 -0.16735703 1.179
0.12570511 -0.17012112 1.176
0.12559135 -0.17316324 1.1750001
0.12569128 -0.17649963 1.176
0.12568425 -0.17968819 1.176
0.12557027 -0.18272077 1.1750001
0.1255631 -0.18590567 1.1750001
0.12576954 -0.18941194 1.177
0.13083094 -0.13385271 1.2550001
0.13040824 -0.13682556 1.251
0.13019395 -0.14000045 1.2490001
0.13029227 -0.14350843 1.25
0.13007776 -0.14666885 1.248
0.12996742 -0.14993823 1.2470001
0.12975271 -0.15307873 1.245
0.12932953 -0.15595661 1.2410001
0.12346189 -0.1650005 1.1850001
0.12335112 -0.16807348 1.184
0.12303191 -0.17085123 1.1810001
0.12292098 -0.17390697 1.1800001
0.12280998 -0.17695683 1.179
0.12280308 -0.18015361 1.179
0.1227961 -0.18334991 1.179
0.12278903 -0.1865457 1.179
0.12299021 -0.19006291 1.1810001
0.12741992 -0.13385831 1.2550001
0.12710977 -0.13694064 1.2520001
0.126901 -0.14011833 1.25
0.12679371 -0.14339955 1.2490001
0.12658478 -0.14655735 1.2470001
0.12647727 -0.1498241 1.2460001
0.12636966 -0.15308495 1.245
0.12595749 -0.15596291 1.2410001
0.12012162 -0.17450322 1.184
0.11991204 -0.17741391 1.182
0.12000671 -0.18077171 1.1830001
0.12010127 -0.18413442 1.184
0.1240085 -0.13386378 1.2550001
0.1238054 -0.13705558 1.253
0.12360225 -0.14023611 1.251
0.12339897 -0.14340532 1.2490001
0.12329441 -0.14668076 1.248
0.12299217 -0.14970982 1.245
0.12288744 -0.15296806 1.2440001
0.12248626 -0.15584339 1.24
0.12257891 -0.15933849 1.2410001
0.12059668 -0.13386913 1.2550001
0.12039916 -0.13706101 1.253
0.12010548 -0.14012954 1.25
0.12000387 -0.14341097 1.2490001
0.1198061 -0.14656898 1.2470001
0.11960822 -0.14971566 1.245
0.11941027 -0.15285102 1.243
0.11911616 -0.1558494 1.24
0.1193023 -0.159473 1.2420001
0.11939226 -0.16297588 1.243
0.11957815 -0.16661753 1.245
0.11727785 -0.13398099 1.256
0.1170859 -0.13717574 1.2540001
0.11680049 -0.14024706 1.251
0.11660837 -0.14341648 1.2490001
0.11650953 -0.14669213 1.248
0.11641059 -0.14996189 1.2470001
0.11612485 -0.15297979 1.2440001
0.11593241 -0.15610665 1.2420001
0.11611322 -0.15973578 1.2440001
0.11638727 -0.16350645 1.2470001
0.11647452 -0.16702521 1.248
0.11656169 -0.17054896 1.2490001
0.11646211 -0.1737991 1.248
0.11404386 -0.13419944 1.258
0.11385749 -0.1373997 1.256
0.11358036 -0.14047657 1.253
0.11339381 -0.14365152 1.251
0.11320717 -0.14681514 1.2490001
0.11311109 -0.1500877 1.248
0.11292429 -0.1532314 1.2460001
0.11273741 -0.15636379 1.2440001
0.11291292 -0.15999843 1.2460001
0.11308835 -0.16364351 1.248
0.11326364 -0.16729893 1.25
0.11334824 -0.17082819 1.251
0.11352334 -0.17450164 1.253
0.11369834 -0.17818546 1.2550001
0.11097451 -0.13463114 1.2620001
0.11070576 -0.13773297 1.2590001
0.11034898 -0.14070594 1.2550001
0.11008008 -0.14377157 1.2520001
0.10989901 -0.14693803 1.25
0.10980579 -0.15021339 1.2490001
0.10980039 -0.15360586 1.2490001
0.10961908 -0.15674646 1.2470001
0.1097014 -0.16026098 1.248
0.10969573 -0.16364929 1.248
0.10986575 -0.16730481 1.25
0.10994779 -0.17083418 1.251
0.11011761 -0.17450771 1.253
0.1104631 -0.1784756 1.2570001
0.10762737 -0.13474265 1.263
0.10736691 -0.1378473 1.2600001
0.10710637 -0.14093521 1.2570001
0.10693096 -0.14412121 1.2550001
0.10675546 -0.14729586 1.253
0.1065799 -0.15045922 1.251
0.10648943 -0.15373421 1.25
0.10639891 -0.15700333 1.2490001
0.10647865 -0.16052336 1.25
0.10655831 -0.16404834 1.251
0.10672305 -0.16771211 1.253
0.10663217 -0.17097658 1.2520001
0.10679671 -0.17465292 1.2540001
0.10704633 -0.17848162 1.2570001
0.10746613 -0.18261546 1.2620001
0.10402228 -0.13796149 1.261
0.10385253 -0.14116435 1.2590001
0.10368268 -0.14435585 1.2570001
0.10351278 -0.14753605 1.2550001
0.10334278 -0.15070491 1.253
0.1032552 -0.15398544 1.2520001
0.10325 -0.15738575 1.2520001
0.10324471 -0.16078562 1.2520001
0.10332178 -0.1643161 1.253
0.10339878 -0.16785154 1.2540001
0.10339323 -0.17125538 1.2540001
0.1033876 -0.17465867 1.2540001
0.10362922 -0.17848745 1.2570001
0.10403562 -0.18262142 1.2620001
0.10075165 -0.13818498 1.263
0.10050771 -0.14128122 1.2600001
0.10042322 -0.14459038 1.2590001
0.10025888 -0.1477761 1.2570001
0.10001472 -0.15083019 1.2540001
0.099929981 -0.1541135 1.253
0.10000469 -0.15764235 1.2540001
0.1000793 -0.16117615 1.2550001
0.10023355 -0.16484602 1.2570001
0.10030796 -0.16839239 1.258
0.10030256 -0.17180716 1.258
0.10037681 -0.17536068 1.2590001
0.10045098 -0.17891912 1.2600001
0.097465292 -0.14184649 1.2650001
0.097306594 -0.14505444 1.263
0.097070813 -0.14813358 1.2600001
0.096834943 -0.1511959 1.2570001
0.096676044 -0.15436445 1.2550001
0.096748173 -0.15789881 1.256
0.096897222 -0.16156653 1.258
0.096969172 -0.16511349 1.2590001
0.09711805 -0.16879927 1.261
0.097189821 -0.17235883 1.2620001
0.097261496 -0.17592326 1.263
0.093940414 -0.14860848 1.2640001
0.093712859 -0.15168175 1.261
0.093559533 -0.15486123 1.2590001
0.093629092 -0.15840657 1.2600001
0.093698546 -0.1619568 1.261
0.093842223 -0.16564313 1.263
0.093837216 -0.16907212 1.263
0.093980722 -0.17277376 1.2650001
0.090420954 -0.1553579 1.263
0.090416342 -0.15878844 1.263
0.090411648 -0.16221847 1.263
0.090621628 -0.16604148 1.266
0.09068837 -0.16961257 1.2670001
0.059486452 -0.15539241 1.263
0.059530452 -0.1589493 1.2640001
0.059433099 -0.16212568 1.2620001
0.059524085 -0.16581544 1.2640001
0.059520826 -0.16924775 1.2640001
0.0596117 -0.1729528 1.266
0.056231357 -0.149002 1.2670001
0.056095384 -0.15208404 1.2640001
0.055959374 -0.15514931 1.261
0.055956446 -0.15857504 1.261
0.055820361 -0.16161488 1.258
0.055861723 -0.16516265 1.2590001
0.055814296 -0.16844754 1.258
0.055944283 -0.17227294 1.261
0.056074217 -0.17611413 1.2640001
0.052700918 -0.14533138 1.2650001
0.05257332 -0.14841668 1.2620001
0.052487355 -0.15160553 1.2600001
0.052443001 -0.15490605 1.2590001
0.052398607 -0.15820065 1.258
0.052312519 -0.16136084 1.256
0.052268043 -0.16464084 1.2550001
0.05230682 -0.16818272 1.256
0.052387185 -0.17186612 1.258
0.05246751 -0.17555986 1.2600001
0.049139451 -0.14498921 1.2620001
0.049059138 -0.14818402 1.2600001
0.048978791 -0.15136747 1.258
0.048937336 -0.15466259 1.2570001
0.048856914 -0.15782607 1.2550001
0.048815381 -0.1611066 1.2540001
0.048773814 -0.16438122 1.253
0.048771132 -0.1677838 1.253
0.04880733 -0.17132251 1.2540001
0.048882402 -0.17500544 1.256
0.048996348 -0.17884073 1.2590001
0.045777462 -0.14178535 1.2640001
0.045630373 -0.14476179 1.2600001
0.045519464 -0.14783359 1.2570001
0.045480952 -0.15112925 1.256
0.045406181 -0.15429592 1.2540001
0.045295179 -0.15732551 1.251
0.045292761 -0.1607237 1.251
0.0452541 -0.1639902 1.25
0.045324016 -0.1676525 1.2520001
0.045357678 -0.17118855 1.253
0.045427505 -0.17486879 1.2550001
0.04549728 -0.17855936 1.2570001
0.042268053 -0.14156315 1.2620001
0.042165514 -0.14464903 1.2590001
0.04209644 -0.14783578 1.2570001
0.042027328 -0.15101115 1.2550001
0.041891214 -0.15392907 1.251
0.041822046 -0.1570763 1.2490001
0.041819807 -0.1604691 1.2490001
0.041817535 -0.16386141 1.2490001
0.041848712 -0.16738711 1.25
0.041846365 -0.17078109 1.25
0.041910943 -0.17445326 1.2520001
0.042008951 -0.17827779 1.2550001
0.042140383 -0.18226285 1.2590001
0.038830936 -0.14156511 1.2620001
0.038736735 -0.14465103 1.2590001
0.03867327 -0.1478378 1.2570001
0.038609777 -0.15101321 1.2550001
0.038515493 -0.15405422 1.2520001
0.03842118 -0.15707843 1.2490001
0.03838836 -0.16034277 1.248
0.038386278 -0.16373241 1.248
0.038414918 -0.16725545 1.2490001
0.038443513 -0.17078339 1.25
0.038533587 -0.17459491 1.253
0.038562119 -0.17813806 1.2540001
0.038652111 -0.18197568 1.2570001
0.03547952 -0.13846414 1.2650001
0.035393678 -0.14156689 1.2620001
0.035307813 -0.14465286 1.2590001
0.035278007 -0.14795727 1.258
0.035192091 -0.1510151 1.2550001
0.035134189 -0.15417917 1.253
0.035076261 -0.1573319 1.251
0.035046343 -0.16060172 1.25
0.034988366 -0.16373442 1.248
0.0349584 -0.16698965 1.2470001
0.034984469 -0.1705122 1.248
0.035038538 -0.17417899 1.25
0.035120603 -0.17799814 1.253
0.035202634 -0.18183309 1.256
0.032008477 -0.1383563 1.2640001
0.031930972 -0.14145635 1.261
0.031878769 -0.14465453 1.2590001
0.031851854 -0.14795896 1.258
0.031774282 -0.15101683 1.2550001
0.031696685 -0.15405788 1.2520001
0.031619068 -0.15708214 1.2490001
0.031566743 -0.16021809 1.2470001
0.031539712 -0.16347386 1.2460001
0.031537965 -0.16685759 1.2460001
0.031536195 -0.17024082 1.2460001
0.031585012 -0.17390221 1.248
0.031659108 -0.17771599 1.251
0.031783782 -0.18183506 1.256
0.028542774 -0.13824826 1.263
0.028451009 -0.14123346 1.2590001
0.028381821 -0.14431132 1.256
0.028402997 -0.14784287 1.2570001
0.028356364 -0.15101838 1.2550001
0.028309705 -0.15418249 1.253
0.028217843 -0.15708375 1.2490001
0.028216328 -0.16047667 1.2490001
0.028192198 -0.16373788 1.248
0.028190635 -0.16712707 1.248
0.028143875 -0.1702425 1.2460001
0.028187444 -0.17390393 1.248
0.028276155 -0.1778598 1.2520001
0.028409993 -0.18212637 1.258
0.025021587 -0.14123477 1.2590001
0.024960736 -0.14431265 1.256
0.024959486 -0.14772661 1.256
0.024938347 -0.15101974 1.2550001
0.02487744 -0.15406084 1.2520001
0.024796646 -0.15695937 1.248
0.024815183 -0.1604781 1.2490001
0.024833698 -0.16400175 1.25
0.024832319 -0.16739638 1.25
0.024791194 -0.17051727 1.248
0.024829505 -0.17418413 1.25
0.024887655 -0.1780034 1.253
0.024985502 -0.18212795 1.258
0.021609224 -0.14134808 1.2600001
0.021522414 -0.14419891 1.2550001
0.021521339 -0.14761017 1.2550001
0.02152024 -0.15102093 1.2550001
0.021467684 -0.15406205 1.2520001
0.021432254 -0.15721214 1.25
0.021431103 -0.16060784 1.25
0.021464223 -0.16426544 1.2520001
0.021445889 -0.16753161 1.251
0.021427538 -0.17079186 1.25
0.021460596 -0.17446415 1.2520001
0.021527912 -0.17843093 1.256
0.021578064 -0.1822741 1.2590001
0.018220192 -0.14168559 1.263
0.018147169 -0.14454459 1.258
0.018117409 -0.14772879 1.256
0.018116483 -0.15114228 1.256
0.018057849 -0.15406308 1.2520001
0.018028049 -0.1572132 1.25
0.017998235 -0.16035192 1.248
0.018040515 -0.16413531 1.251
0.018039513 -0.16753271 1.251
0.018038498 -0.17092961 1.251
0.018066302 -0.17460465 1.253
0.018108508 -0.17843209 1.256
0.018150695 -0.18227528 1.2590001
0.014743811 -0.14477521 1.2600001
0.014731371 -0.14808246 1.2590001
0.014718917 -0.1513838 1.258
0.014683053 -0.1544331 1.2550001
0.01463548 -0.15733984 1.251
0.014611296 -0.1604813 1.2490001
0.014622194 -0.164005 1.25
0.01463308 -0.16753362 1.251
0.014643951 -0.17106716 1.2520001
0.014666506 -0.17474496 1.2540001
0.01470074 -0.17857513 1.2570001
0.014746653 -0.18256581 1.261
0.011338483 -0.14512056 1.263
0.01131996 -0.14831837 1.261
0.011310406 -0.15162516 1.2600001
0.011291863 -0.15480295 1.258
0.011264342 -0.15784363 1.2550001
0.011245782 -0.16099595 1.253
0.01122722 -0.16413693 1.251
0.01123557 -0.16766827 1.2520001
0.011243909 -0.17120452 1.253
0.011261213 -0.17488505 1.2550001
0.011278505 -0.17857589 1.2570001
0.011313729 -0.18256658 1.261
0.0078976145 -0.14855409 1.263
0.0078784535 -0.15162566 1.2600001
0.0078655379 -0.15480345 1.258
0.0078526167 -0.15796989 1.256
0.0078459419 -0.16125345 1.2550001
0.0078330096 -0.16439986 1.253
0.0078388257 -0.16793664 1.2540001
0.0078383842 -0.17134173 1.2540001
0.0078504356 -0.17502496 1.256
0.0078687295 -0.17886056 1.2590001
0.0044535301 -0.15186664 1.2620001
0.0044462406 -0.15504989 1.2600001
0.0044424762 -0.15834753 1.2590001
0.004438709 -0.16163924 1.258
0.0044349381 -0.16492502 1.2570001
0.0044311634 -0.16820481 1.256
0.0044309134 -0.17161533 1.256
0.0044377143 -0.17530401 1.258
0.0044515664 -0.17928712 1.2620001
0.0010159797 -0.15872501 1.2620001
0.0010151201 -0.16202489 1.261
0.0010158694 -0.1655812 1.2620001
0.001015008 -0.16887459 1.261
0.0010157556 -0.17243533 1.2620001
-0.022737324 -0.15399444 1.0840001
-0.022673067 -0.15650211 1.0810001
-0.022692692 -0.15958299 1.082
-0.022712298 -0.16266882 1.0830001
-0.022710916 -0.16560671 1.0830001
-0.022688545 -0.16838846 1.082
-0.02268713 -0.17132266 1.082
-0.022706671 -0.17441744 1.0830001
-0.022726189 -0.17751716 1.0840001
-0.025594985 -0.15049319 1.08
-0.025546111 -0.15314066 1.0780001
-0.025520917 -0.15592159 1.077
-0.025543097 -0.15899161 1.0780001
-0.025541559 -0.16191636 1.0780001
-0.025563696 -0.16499357 1.079
-0.02551474 -0.16760884 1.077
-0.025489466 -0.17037113 1.0760001
-0.025487863 -0.17328857 1.0760001
-0.025533615 -0.17653306 1.0780001
-0.025555657 -0.17962141 1.079
-0.025672421 -0.18339145 1.0840001
-0.02861605 -0.1479695 1.0830001
-0.028455889 -0.15007359 1.077
-0.02842783 -0.15285498 1.0760001
-0.028373325 -0.15548566 1.074
-0.028345225 -0.15825254 1.0730001
-0.028343525 -0.16116375 1.0730001
-0.028341802 -0.16407447 1.0730001
-0.028340058 -0.16698469 1.0730001
-0.028311884 -0.1697361 1.072
-0.028336516 -0.17280374 1.0730001
-0.028413938 -0.17620382 1.0760001
-0.02843852 -0.17928673 1.077
-0.02851589 -0.18271297 1.08
-0.028619638 -0.18632685 1.0840001
-0.031624518 -0.14529502 1.085
-0.031447869 -0.14742127 1.079
-0.031329509 -0.14979319 1.075
-0.031269416 -0.15242706 1.0730001
-0.031238448 -0.15519439 1.072
-0.03117832 -0.15780832 1.0700001
-0.031205587 -0.16086154 1.0710001
-0.031203689 -0.16376682 1.0710001
-0.031172641 -0.16651599 1.0700001
-0.031141572 -0.16925924 1.069
-0.031227006 -0.17264079 1.072
-0.03131241 -0.17603813 1.075
-0.031368658 -0.17928483 1.077
-0.031395752 -0.18237266 1.0780001
-0.031451952 -0.18563733 1.08
-0.034644075 -0.1426091 1.087
-0.034482818 -0.14489143 1.082
-0.034353413 -0.14728281 1.0780001
-0.034287728 -0.14993069 1.0760001
-0.034158297 -0.1522831 1.072
-0.034156304 -0.15519245 1.072
-0.034058698 -0.15765887 1.069
-0.034088518 -0.16070937 1.0700001
-0.034022737 -0.16330609 1.0680001
-0.034020647 -0.16620272 1.0680001
-0.034018539 -0.16909888 1.0680001
-0.034111958 -0.17247771 1.0710001
-0.034173492 -0.17570855 1.0730001
-0.034203153 -0.17878331 1.074
-0.034200944 -0.18169382 1.074
-0.034262404 -0.18494764 1.0760001
-0.03438751 -0.18856095 1.08
-0.037499692 -0.14221357 1.0840001
-0.037359256 -0.14462161 1.08
-0.037218809 -0.14700754 1.0760001
-0.037147518 -0.14964995 1.074
-0.037041627 -0.15213901 1.0710001
-0.037004873 -0.15490082 1.0700001
-0.036968112 -0.15765677 1.069
-0.037000477 -0.16070722 1.0700001
-0.036894504 -0.16315103 1.067
-0.036892243 -0.16604492 1.067
-0.03692453 -0.16909666 1.0680001
-0.036991362 -0.17231442 1.0700001
-0.036989022 -0.17521504 1.0700001
-0.037021227 -0.17828165 1.0710001
-0.037018839 -0.18118401 1.0710001
-0.037085559 -0.18442965 1.0730001
-0.037221365 -0.18803482 1.077
-0.040338844 -0.14181785 1.0810001
-0.040224686 -0.14435166 1.0780001
-0.040147819 -0.14700538 1.0760001
-0.040070914 -0.14964773 1.074
-0.039956689 -0.15213676 1.0710001
-0.039954364 -0.15504335 1.0710001
-0.039914701 -0.15780197 1.0700001
-0.039912317 -0.16070491 1.0700001
-0.039760705 -0.16299579 1.0660001
-0.03979557 -0.16604255 1.067
-0.039830405 -0.16909428 1.0680001
-0.039902497 -0.17231201 1.0700001
-0.039899979 -0.17521259 1.0700001
-0.039897434 -0.17811272 1.0700001
-0.039894864 -0.18101233 1.0700001
-0.039929558 -0.18408337 1.0710001
-0.040038776 -0.18750849 1.074
-0.040222526 -0.191304 1.079
-0.043444149 -0.13939354 1.085
-0.043241605 -0.14168437 1.08
-0.043119121 -0.14421543 1.077
-0.043036647 -0.14686641 1.075
-0.042954147 -0.14950605 1.0730001
-0.042831596 -0.15199231 1.0700001
-0.042789076 -0.15475138 1.069
-0.042746533 -0.15750456 1.0680001
-0.042784002 -0.16055223 1.069
-0.042701378 -0.16314618 1.067
-0.042658757 -0.16588442 1.0660001
-0.042656124 -0.16877508 1.0660001
-0.04269347 -0.17182629 1.067
-0.042770796 -0.17504621 1.069
-0.042768076 -0.1779436 1.069
-0.042765323 -0.18084049 1.069
-0.042802557 -0.18390879 1.0700001
-0.042879757 -0.1871566 1.072
-0.042996917 -0.19059207 1.075
-0.046355084 -0.13926266 1.0840001
-0.046138771 -0.14155075 1.079
-0.046050724 -0.14421298 1.077
-0.045919891 -0.14672729 1.074
-0.045874543 -0.14950351 1.0730001
-0.045700911 -0.15184771 1.069
-0.045698259 -0.15474878 1.069
-0.045610074 -0.15735447 1.067
-0.045607366 -0.1602492 1.067
-0.045519128 -0.1628377 1.0650001
-0.04547362 -0.16557048 1.064
-0.045470808 -0.16845566 1.064
-0.045510717 -0.17150146 1.0650001
-0.04559331 -0.17471591 1.067
-0.045590412 -0.17760785 1.067
-0.045630213 -0.18066847 1.0680001
-0.04566998 -0.18373403 1.069
-0.04575244 -0.18697912 1.0710001
-0.045834858 -0.19023454 1.0730001
-0.049166795 -0.14181054 1.0810001
-0.049027663 -0.14434426 1.0780001
-0.048797548 -0.14658803 1.0730001
-0.048658367 -0.14908284 1.0700001
-0.048519164 -0.1515609 1.067
-0.048470885 -0.15431178 1.0660001
-0.048377104 -0.15690927 1.064
-0.048419692 -0.15994602 1.0650001
-0.048371315 -0.16268195 1.064
-0.048277456 -0.16525638 1.062
-0.048229031 -0.16797781 1.0610001
-0.048316941 -0.17117646 1.0630001
-0.048359349 -0.17422172 1.064
-0.048401732 -0.17727196 1.0650001
-0.048444077 -0.18032713 1.0660001
-0.048531834 -0.1835591 1.0680001
-0.048619546 -0.18680145 1.0700001
-0.048661787 -0.18987685 1.0710001
-0.052060917 -0.1416766 1.08
-0.051865268 -0.14407368 1.0760001
-0.0516214 -0.14631198 1.0710001
-0.051522091 -0.14894067 1.069
-0.051374573 -0.151416 1.0660001
-0.051371604 -0.15430887 1.0660001
-0.051272213 -0.15690632 1.064
-0.05126917 -0.15979287 1.064
-0.051169727 -0.16237317 1.062
