# .PCD v0.7 - Point Cloud Data file format
VERSION 0.7
FIELDS x y z
SIZE 4 4 4
TYPE F F F
COUNT 1 1 1
WIDTH 1095
HEIGHT 1
VIEWPOINT 0 0 0 1 0 0 0
POINTS 1095
DATA ascii
-0.0082103927 -0.19788228 1.1160001
-0.011248519 -0.18881135 1.1160001
-0.011227625 -0.1914915 1.1140001
-0.011216803 -0.19433488 1.113
-0.011205978 -0.19717239 1.1120001
-0.011205225 -0.20018399 1.1120001
-0.011204466 -0.20319505 1.1120001
-0.011213775 -0.20639104 1.113
-0.014311511 -0.18611903 1.118
-0.01425938 -0.18847215 1.1140001
-0.014220047 -0.190975 1.1110001
-0.014206308 -0.19381024 1.11
-0.014192563 -0.1966396 1.1090001
-0.01419161 -0.19964306 1.1090001
-0.014203443 -0.20282871 1.11
-0.014202476 -0.20583385 1.11
-0.014188706 -0.20865035 1.1090001
-0.014187726 -0.21165177 1.1090001
-0.01732252 -0.18578506 1.1160001
-0.017243791 -0.18796356 1.1110001
-0.017211622 -0.19063015 1.1090001
-0.017194964 -0.19345999 1.108
-0.017178299 -0.19628391 1.107
-0.01716163 -0.19910194 1.1060001
-0.01716047 -0.20209675 1.1060001
-0.0171593 -0.20509106 1.1060001
-0.017158123 -0.20808485 1.1060001
-0.017141424 -0.21088728 1.105
-0.017140234 -0.21387736 1.105
-0.020360386 -0.18275893 1.1160001
-0.020286106 -0.18511796 1.1120001
-0.020211821 -0.18745479 1.108
-0.020174017 -0.19011325 1.1060001
-0.020172684 -0.19310954 1.1060001
-0.020134866 -0.19575074 1.1040001
-0.020115277 -0.19856063 1.103
-0.02009568 -0.20136456 1.102
-0.020094311 -0.204348 1.102
-0.020074705 -0.20714286 1.1010001
-0.020073317 -0.2101226 1.1010001
-0.020090153 -0.21329543 1.102
-0.023313213 -0.18210247 1.1120001
-0.023248823 -0.18461713 1.1090001
-0.023163468 -0.18694584 1.105
-0.023120031 -0.18959615 1.103
-0.023118503 -0.19258431 1.103
-0.023096006 -0.19539465 1.102
-0.023094457 -0.19837911 1.102
-0.023050986 -0.20099765 1.1
-0.023049418 -0.20397569 1.1
-0.023047838 -0.20695321 1.1
-0.023046251 -0.20993027 1.1
-0.023065604 -0.21310036 1.1010001
-0.023084942 -0.21627539 1.102
-0.026387991 -0.17940843 1.1140001
-0.026315257 -0.18193713 1.1110001
-0.026218826 -0.18428257 1.107
-0.026146082 -0.18677506 1.1040001
-0.026097007 -0.18942262 1.102
-0.02607161 -0.1922335 1.1010001
-0.026046192 -0.19503841 1.1
-0.026068127 -0.19819748 1.1010001
-0.026066368 -0.20117871 1.1010001
-0.026040923 -0.20397402 1.1
-0.02601547 -0.20676342 1.0990001
-0.02601368 -0.20973775 1.0990001
-0.026035545 -0.21290511 1.1
-0.026010066 -0.21568492 1.0990001
-0.029392861 -0.17924562 1.113
-0.029338183 -0.18193534 1.1110001
-0.029230678 -0.1842808 1.107
-0.029149577 -0.18677326 1.1040001
-0.029068468 -0.18924893 1.1010001
-0.029040152 -0.19205706 1.1
-0.029038223 -0.19503656 1.1
-0.029036278 -0.19801559 1.1
-0.02903432 -0.2009941 1.1
-0.028979564 -0.20360127 1.098
-0.028977582 -0.20657338 1.098
-0.028949201 -0.20935415 1.097
-0.028947195 -0.21232253 1.097
-0.028918799 -0.21509422 1.0960001
-0.032363065 -0.17892157 1.1110001
-0.032302756 -0.18160586 1.1090001
-0.032184184 -0.18394591 1.105
-0.032094728 -0.18643288 1.102
-0.032034393 -0.18907504 1.1
-0.032003164 -0.19188045 1.0990001
-0.031971924 -0.19467995 1.098
-0.031969786 -0.19765353 1.098
-0.031967632 -0.20062663 1.098
-0.031936351 -0.20341375 1.097
-0.031905062 -0.20619503 1.0960001
-0.031844657 -0.20877953 1.0940001
-0.031842455 -0.21173981 1.0940001
-0.031840242 -0.2146996 1.0940001
-0.035354126 -0.1787584 1.11
-0.035224494 -0.18111245 1.1060001
-0.035094857 -0.18344434 1.102
-0.035028901 -0.18609238 1.1
-0.034994781 -0.18890098 1.0990001
-0.034960635 -0.19170363 1.098
-0.034926482 -0.19450039 1.097
-0.034860481 -0.19711125 1.095
-0.034826305 -0.19989349 1.0940001
-0.03479211 -0.2026698 1.0930001
-0.034789741 -0.20562835 1.0930001
-0.034787357 -0.20858639 1.0930001
-0.034816779 -0.2117375 1.0940001
-0.034878008 -0.21508978 1.0960001
-0.038305074 -0.178434 1.108
-0.038164377 -0.18078262 1.1040001
-0.038058236 -0.18327554 1.1010001
-0.037986655 -0.18592085 1.0990001
-0.037949622 -0.18872669 1.098
-0.037843447 -0.19117747 1.095
-0.037771828 -0.19378878 1.0930001
-0.037734754 -0.1965688 1.092
-0.037732217 -0.19952559 1.092
-0.037729666 -0.2024819 1.092
-0.037727095 -0.2054377 1.092
-0.037793607 -0.20877475 1.0940001
-0.037860092 -0.21212207 1.0960001
-0.041016053 -0.18310653 1.1
-0.040901557 -0.18557993 1.097
-0.040824335 -0.18820848 1.095
-0.040747099 -0.1908257 1.0930001
-0.040707134 -0.19360888 1.092
-0.04066715 -0.19638619 1.0910001
-0.040627152 -0.19915754 1.09
-0.040624406 -0.20210841 1.09
-0.040696178 -0.20543505 1.092
-0.040730659 -0.20858119 1.0930001
-0.040802386 -0.21192582 1.095
-0.043508142 -0.20173472 1.0880001
-0.043665133 -0.20543218 1.092
-0.047992699 -0.17577389 1.056
-0.047898736 -0.17829716 1.054
-0.047713879 -0.18046542 1.0500001
-0.047756206 -0.18348441 1.051
-0.047843941 -0.18668564 1.0530001
-0.047931638 -0.18989724 1.0550001
-0.050823089 -0.16988513 1.0550001
-0.050771732 -0.17258118 1.054
-0.050575845 -0.17477204 1.0500001
-0.050524447 -0.17744821 1.049
-0.050376706 -0.17977475 1.046
-0.050469749 -0.18295747 1.0480001
-0.050562747 -0.18615054 1.0500001
-0.050607551 -0.18917398 1.051
-0.050556041 -0.19183698 1.0500001
-0.050504502 -0.19449405 1.049
-0.050549243 -0.19752154 1.0500001
-0.053801123 -0.16447212 1.057
-0.053696033 -0.16702163 1.0550001
-0.053489126 -0.16923776 1.051
-0.053434897 -0.17192297 1.0500001
-0.053278852 -0.17426939 1.0470001
-0.053173691 -0.17676826 1.0450001
-0.053068511 -0.17925581 1.0430001
-0.053166818 -0.18243036 1.0450001
-0.053265087 -0.18561527 1.0470001
-0.053312447 -0.18863058 1.0480001
-0.053258035 -0.1912854 1.0470001
-0.053152747 -0.19374897 1.0450001
-0.053200021 -0.19676554 1.046
-0.053247277 -0.1997871 1.0470001
-0.056572527 -0.16129643 1.0550001
-0.056408245 -0.16369076 1.052
-0.056404795 -0.1665433 1.052
-0.056240469 -0.16891229 1.049
-0.056129739 -0.17142831 1.0470001
-0.055965383 -0.1737666 1.044
-0.055854615 -0.1762573 1.0420001
-0.055797424 -0.17890856 1.041
-0.05584741 -0.18190308 1.0420001
-0.055950947 -0.18507984 1.044
-0.05594727 -0.18790701 1.044
-0.055889975 -0.190551 1.0430001
-0.055832662 -0.1931891 1.0420001
-0.055882495 -0.19619755 1.0430001
-0.055932287 -0.19921094 1.044
-0.0560892 -0.20261635 1.0470001
-0.059389502 -0.15828121 1.054
-0.059216931 -0.1606814 1.051
-0.059157018 -0.16337605 1.0500001
-0.059040736 -0.1659065 1.0480001
-0.058924425 -0.16842565 1.046
-0.058808096 -0.17093351 1.044
-0.058748078 -0.17359653 1.0430001
-0.058631692 -0.17608447 1.041
-0.058571618 -0.17873301 1.0400001
-0.058567837 -0.18155023 1.0400001
-0.058564022 -0.18436697 1.0400001
-0.058560181 -0.18718329 1.0400001
-0.058556311 -0.18999912 1.0400001
-0.05855241 -0.19281447 1.0400001
-0.058604777 -0.19581747 1.041
-0.058713421 -0.19901626 1.0430001
-0.058765728 -0.2020319 1.044
-0.05893058 -0.20544492 1.0470001
-0.062319264 -0.15556583 1.0550001
-0.062079333 -0.15782711 1.051
-0.061957516 -0.16037202 1.049
-0.061894722 -0.16306119 1.0480001
-0.061772846 -0.16558619 1.046
-0.061650932 -0.16809988 1.044
-0.061529011 -0.17060231 1.0420001
-0.061466098 -0.17325985 1.041
-0.061403174 -0.17591153 1.0400001
-0.061340205 -0.17855729 1.039
-0.061395288 -0.18154635 1.0400001
-0.061332271 -0.18418579 1.039
-0.061328251 -0.18699937 1.039
-0.061324205 -0.18981244 1.039
-0.061320137 -0.19262509 1.039
-0.061375052 -0.19562536 1.0400001
-0.061429933 -0.19863057 1.041
-0.061543792 -0.20183429 1.0430001
-0.061716616 -0.20524456 1.046
-0.065003611 -0.15511975 1.052
-0.064814433 -0.15752302 1.049
-0.064687021 -0.16006246 1.0470001
-0.064621359 -0.16274619 1.046
-0.064493887 -0.16526572 1.044
-0.064366385 -0.16777399 1.0420001
-0.064300619 -0.17043464 1.041
-0.064234838 -0.17308947 1.0400001
-0.064230785 -0.17590754 1.0400001
-0.064103179 -0.17838144 1.0380001
-0.064099051 -0.18119317 1.0380001
-0.064033151 -0.18382718 1.0370001
-0.064090714 -0.18681528 1.0380001
-0.064024754 -0.18944292 1.0370001
-0.064020514 -0.19225012 1.0370001
-0.064016245 -0.19505684 1.0370001
-0.064197138 -0.19843554 1.0400001
-0.064377986 -0.20183003 1.0430001
-0.064435333 -0.20484784 1.044
-0.064554371 -0.20806952 1.046
-0.067864954 -0.15511589 1.052
-0.067602962 -0.15736897 1.0480001
-0.067405447 -0.15975279 1.0450001
-0.067401409 -0.16258663 1.0450001
-0.067268334 -0.16510342 1.0430001
-0.067070745 -0.16744791 1.0400001
-0.066937633 -0.16993943 1.0380001
-0.066868968 -0.17258607 1.0370001
-0.066929236 -0.17556511 1.0380001
-0.066860504 -0.1782054 1.0370001
-0.066791743 -0.18083982 1.036
-0.066722959 -0.18346839 1.0350001
-0.066847548 -0.18663101 1.0370001
-0.066843159 -0.18943863 1.0370001
-0.066838741 -0.19224578 1.0370001
-0.066834301 -0.19505249 1.0370001
-0.066958718 -0.19824034 1.039
-0.067211978 -0.20182557 1.0430001
-0.067271866 -0.20484337 1.044
-0.067267299 -0.20766719 1.044
-0.070591629 -0.15481696 1.0500001
-0.070385836 -0.15721475 1.0470001
-0.070179999 -0.1595958 1.044
-0.070108607 -0.16227132 1.0430001
-0.069969937 -0.16478263 1.041
-0.069831245 -0.16728269 1.039
-0.069692537 -0.16977146 1.0370001
-0.069688194 -0.17258178 1.0370001
-0.069683813 -0.17539164 1.0370001
-0.069612205 -0.17802921 1.036
-0.069540568 -0.1806609 1.0350001
-0.069468901 -0.18328671 1.034
-0.069531575 -0.18626662 1.0350001
-0.069527023 -0.18906879 1.0350001
-0.069589615 -0.19205588 1.036
-0.069517843 -0.19467178 1.0350001
-0.069714695 -0.19804499 1.0380001
-0.069844335 -0.20124047 1.0400001
-0.069973923 -0.20444632 1.0420001
-0.070036344 -0.20746364 1.0430001
-0.070165858 -0.2106875 1.0450001
-0.073731132 -0.15254307 1.054
-0.073377155 -0.15466535 1.049
-0.073093109 -0.15691024 1.0450001
-0.072948918 -0.15943871 1.0430001
-0.072944567 -0.16226703 1.0430001
-0.072800316 -0.16477832 1.041
-0.072656021 -0.16727833 1.039
-0.072441779 -0.16960335 1.036
-0.072437286 -0.17241092 1.036
-0.072362833 -0.1750489 1.0350001
-0.072288342 -0.177681 1.034
-0.072283737 -0.18048179 1.034
-0.072279096 -0.18328212 1.034
-0.072344318 -0.186262 1.0350001
-0.072409488 -0.1892468 1.036
-0.072544515 -0.19242196 1.0380001
-0.072469831 -0.19504322 1.0370001
-0.072534896 -0.19804022 1.0380001
-0.072530054 -0.20084867 1.0380001
-0.072734781 -0.20424528 1.041
-0.072799735 -0.20725986 1.0420001
-0.07300438 -0.21068263 1.0450001
-0.076379389 -0.1521046 1.051
-0.076084331 -0.15436617 1.0470001
-0.075789258 -0.15660559 1.0430001
-0.075712152 -0.15928145 1.0420001
-0.07578031 -0.16226257 1.0430001
-0.075630456 -0.16477384 1.041
-0.075480565 -0.1672738 1.039
-0.07533066 -0.16976251 1.0370001
-0.075180724 -0.17223991 1.0350001
-0.07517603 -0.17504425 1.0350001
-0.075171292 -0.17784816 1.0350001
-0.075166523 -0.18065165 1.0350001
-0.075161703 -0.18345465 1.0350001
-0.075156853 -0.18625721 1.0350001
-0.075224571 -0.18924196 1.036
-0.075292259 -0.19223173 1.0370001
-0.075214706 -0.19485027 1.036
-0.07528232 -0.19784451 1.0370001
-0.075277299 -0.20065023 1.0370001
-0.075490013 -0.2040441 1.0400001
-0.075557515 -0.20705596 1.041
-0.075697556 -0.21027437 1.0430001
-0.07923726 -0.15210018 1.051
-0.079006575 -0.15450914 1.0480001
-0.078775853 -0.15690137 1.0450001
-0.078545108 -0.1592769 1.0420001
-0.078540459 -0.16210242 1.0420001
-0.078460388 -0.1647692 1.041
-0.078229554 -0.16710815 1.0380001
-0.078074031 -0.16959406 1.036
-0.07799387 -0.17223515 1.0350001
-0.077989019 -0.17503947 1.0350001
-0.077984117 -0.17784335 1.0350001
-0.077979185 -0.18064676 1.0350001
-0.0779742 -0.18344973 1.0350001
-0.077969193 -0.18625228 1.0350001
-0.07803946 -0.189237 1.036
-0.078109697 -0.19222671 1.0370001
-0.078104563 -0.19503328 1.0370001
-0.0780994 -0.19783941 1.0370001
-0.07816954 -0.20083861 1.0380001
-0.078314923 -0.20403896 1.0400001
-0.078460254 -0.20724967 1.0420001
-0.078605555 -0.21047077 1.044
-0.082094885 -0.15209562 1.051
-0.081934005 -0.15465194 1.049
-0.081694968 -0.15704684 1.046
-0.081455916 -0.15942506 1.0430001
-0.081294917 -0.16194208 1.041
-0.081133895 -0.16444784 1.039
-0.080972835 -0.16694233 1.0370001
-0.080889821 -0.16958921 1.036
-0.080806784 -0.17223026 1.0350001
-0.080879837 -0.17520362 1.036
-0.080874763 -0.17801015 1.036
-0.080791607 -0.18064171 1.0350001
-0.080786474 -0.18344465 1.0350001
-0.080703244 -0.18606719 1.034
-0.08085411 -0.18923183 1.036
-0.08084885 -0.19203612 1.036
-0.080921605 -0.19502807 1.0370001
-0.080916278 -0.19783418 1.0370001
-0.080988951 -0.20083332 1.0380001
-0.081139594 -0.20403363 1.0400001
-0.081368215 -0.20744321 1.0430001
-0.081440754 -0.21046537 1.044
-0.085033096 -0.15223561 1.052
-0.084866613 -0.15479462 1.0500001
-0.084700093 -0.1573423 1.0480001
-0.084371909 -0.15957305 1.044
-0.084205322 -0.16209276 1.0420001
-0.083957896 -0.16444291 1.039
-0.083791256 -0.16693735 1.0370001
-0.083624572 -0.1694205 1.0350001
-0.083538659 -0.17205876 1.034
-0.083614275 -0.1750294 1.0350001
-0.08352828 -0.17766134 1.034
-0.083442241 -0.18028744 1.033
-0.083436958 -0.18308493 1.033
-0.083431624 -0.18588196 1.033
-0.083587788 -0.18904388 1.0350001
-0.083663128 -0.19203079 1.036
-0.083738424 -0.19502267 1.0370001
-0.083732933 -0.19782874 1.0370001
-0.083727404 -0.20063439 1.0370001
-0.083883323 -0.20383194 1.039
-0.084039181 -0.20703986 1.041
-0.084356472 -0.21066138 1.0450001
-0.087892927 -0.15223074 1.052
-0.08763732 -0.15464224 1.049
-0.087381683 -0.15703706 1.046
-0.08720956 -0.15956803 1.044
-0.087037392 -0.16208771 1.0420001
-0.086781666 -0.16443782 1.039
-0.086692952 -0.16709319 1.0380001
-0.086520664 -0.16957898 1.036
-0.086348377 -0.17205356 1.034
-0.08634305 -0.17485504 1.034
-0.086337693 -0.17765604 1.034
-0.08624877 -0.18028209 1.033
-0.086243331 -0.18307953 1.033
-0.086321324 -0.18605648 1.034
-0.086399272 -0.1890384 1.0350001
-0.08647716 -0.19202526 1.036
-0.086555012 -0.1950171 1.0370001
-0.086632825 -0.19801392 1.0380001
-0.086627133 -0.20082223 1.0380001
-0.08670485 -0.20382628 1.039
-0.08678256 -0.20683533 1.0400001
-0.087110519 -0.21045406 1.044
-0.090925023 -0.15251513 1.054
-0.090661108 -0.15493202 1.051
-0.090310909 -0.15718208 1.0470001
-0.090046942 -0.15956287 1.044
-0.089782938 -0.16192694 1.041
-0.089605153 -0.16443257 1.039
-0.089513585 -0.1670879 1.0380001
-0.089421958 -0.16973734 1.0370001
-0.089330278 -0.17238095 1.036
-0.089152358 -0.17484961 1.034
-0.089146845 -0.17765057 1.034
-0.089141265 -0.18045111 1.034
-0.089135662 -0.18325122 1.034
-0.089129999 -0.18605088 1.034
-0.089296699 -0.18921538 1.036
-0.08937715 -0.19220494 1.0370001
-0.089371361 -0.19501138 1.0370001
-0.089537904 -0.19819891 1.039
-0.089532048 -0.2010099 1.039
-0.08961232 -0.20401664 1.0400001
-0.089778721 -0.20722722 1.0420001
-0.093606524 -0.15507422 1.052
-0.093245305 -0.15732695 1.0480001
-0.092973031 -0.15971041 1.0450001
-0.09261176 -0.16192158 1.041
-0.092339456 -0.16426894 1.0380001
-0.092333965 -0.16708246 1.0380001
-0.092328414 -0.16989554 1.0380001
-0.092233874 -0.17254181 1.0370001
-0.091961421 -0.17484403 1.034
-0.092044681 -0.17781678 1.0350001
-0.092038952 -0.18061997 1.0350001
-0.0921221 -0.18359995 1.036
-0.092116281 -0.18640499 1.036
-0.092199333 -0.18939222 1.0370001
-0.09228234 -0.19238442 1.0380001
-0.092276394 -0.19519357 1.0380001
-0.09235929 -0.19819298 1.039
-0.09253104 -0.20139086 1.041
-0.092613868 -0.20440298 1.0420001
-0.092785522 -0.20761892 1.044
-0.096832171 -0.15565848 1.056
-0.096368223 -0.15777189 1.051
-0.096087642 -0.16016343 1.0480001
-0.095623679 -0.1622272 1.0430001
-0.095343038 -0.1645799 1.0400001
-0.095337398 -0.16739878 1.0400001
-0.095240027 -0.17005354 1.039
-0.095142633 -0.17270252 1.0380001
-0.094861865 -0.1750074 1.0350001
-0.094856031 -0.17781098 1.0350001
-0.094941802 -0.18078865 1.036
-0.095027514 -0.1837713 1.0370001
-0.095021531 -0.186579 1.0370001
-0.095198765 -0.18975151 1.039
-0.095192686 -0.19256374 1.039
-0.095278196 -0.1955636 1.0400001
-0.095272049 -0.19837767 1.0400001
-0.095357455 -0.20138472 1.041
-0.095442832 -0.20439681 1.0420001
-0.099507168 -0.15821667 1.054
-0.09912388 -0.16046347 1.0500001
-0.098740555 -0.16268812 1.046
-0.098451637 -0.16504896 1.0430001
-0.098257042 -0.16755398 1.041
-0.098156817 -0.17021143 1.0400001
-0.098056532 -0.17286302 1.039
-0.097861849 -0.17533968 1.0370001
-0.097761497 -0.17797686 1.036
-0.097755454 -0.18078268 1.036
-0.097843729 -0.18376525 1.0370001
-0.097931959 -0.18675286 1.0380001
-0.098114453 -0.18992801 1.0400001
-0.098108225 -0.19274293 1.0400001
-0.098196283 -0.19574541 1.041
-0.098095648 -0.19837141 1.0400001
-0.098183624 -0.20137846 1.041
-0.098365866 -0.20458667 1.0430001
-0.10217069 -0.16076335 1.052
-0.10177636 -0.1629934 1.0480001
-0.10157623 -0.16551779 1.046
-0.10137606 -0.16803093 1.044
-0.10127296 -0.17069647 1.0430001
-0.10116979 -0.17335615 1.0420001
-0.10096952 -0.17584088 1.0400001
-0.10086627 -0.17848612 1.039
-0.10076301 -0.18112554 1.0380001
-0.10085383 -0.18411347 1.039
-0.1009446 -0.18710643 1.0400001
-0.10113239 -0.19028696 1.0420001
-0.10102892 -0.19292189 1.041
-0.1012166 -0.19611511 1.0430001
-0.10111307 -0.19874649 1.0420001
-0.10130062 -0.20195232 1.044
-0.10532792 -0.16121587 1.0550001
-0.10482273 -0.16329849 1.0500001
-0.10461701 -0.16582827 1.0480001
-0.10451108 -0.16850773 1.0470001
-0.10440508 -0.17118131 1.046
-0.10429905 -0.17384906 1.0450001
-0.10409318 -0.17634189 1.0430001
-0.10398707 -0.17899522 1.0420001
-0.10388091 -0.1816427 1.041
-0.10397429 -0.18463872 1.0420001
-0.10406763 -0.18763976 1.0430001
-0.10406111 -0.19046313 1.0430001
-0.10405456 -0.19328606 1.0430001
-0.10414772 -0.19629657 1.044
-0.10434058 -0.19950283 1.046
-0.10808475 -0.16391444 1.054
-0.10777089 -0.16629678 1.051
-0.10776462 -0.16914526 1.051
-0.10755324 -0.17166598 1.049
-0.10744433 -0.17434184 1.0480001
-0.10723285 -0.17684272 1.046
-0.10722638 -0.17967592 1.046
-0.10721985 -0.18250865 1.046
-0.10731577 -0.18551818 1.0470001
-0.10720663 -0.18817286 1.046
-0.10719997 -0.19100434 1.046
-0.10719325 -0.19383535 1.046
-0.10739144 -0.19704197 1.0480001
-0.11125655 -0.1672398 1.057
-0.11125012 -0.17010447 1.057
-0.11082263 -0.17231414 1.0530001
-0.11071084 -0.17500074 1.052
-0.110599 -0.17768151 1.051
-0.11059236 -0.18052818 1.051
-0.11048044 -0.18319996 1.0500001
-0.11047369 -0.18604305 1.0500001
-0.11046689 -0.18888572 1.0500001
-0.11046004 -0.19172795 1.0500001
-0.11055834 -0.19475503 1.051
-0.1106566 -0.19778715 1.052
-0.11400546 -0.17279845 1.056
-0.1138908 -0.17549315 1.0550001
-0.11388405 -0.17835104 1.0550001
-0.11387723 -0.18120848 1.0550001
-0.11387037 -0.18406551 1.0550001
-0.11375551 -0.1867449 1.054
-0.11364064 -0.18941849 1.0530001
-0.11363363 -0.1922688 1.0530001
-0.11373447 -0.19530395 1.054
-0.11753631 -0.1737735 1.062
-0.1173081 -0.17631803 1.0600001
-0.11707985 -0.17885131 1.0580001
-0.11707287 -0.18171684 1.0580001
-0.11706585 -0.18458192 1.0580001
-0.11705878 -0.18744658 1.0580001
-0.11716226 -0.19049069 1.059
-0.12075222 -0.17714274 1.0650001
-0.12040499 -0.17952046 1.062
-0.12039785 -0.18239675 1.062
-0.12050403 -0.18544708 1.0630001
-0.12375876 -0.17730193 1.0660001
-0.12317108 -0.17934425 1.0610001
-0.12327989 -0.18238951 1.062
-0.12350471 -0.18561423 1.064
-0.12605755 -0.17646307 1.0610001
-0.12581261 -0.1789989 1.059
-0.12580524 -0.18186696 1.059
-0.1259166 -0.18490903 1.0600001
-0.12845777 -0.17292705 1.057
-0.12808582 -0.17529152 1.054
-0.12783539 -0.17780837 1.052
-0.12782794 -0.18065739 1.052
-0.12769891 -0.18333156 1.051
-0.12793435 -0.18653136 1.0530001
-0.12780523 -0.189202 1.052
-0.13058017 -0.17193806 1.051
-0.13044849 -0.17461887 1.0500001
-0.13031675 -0.17729382 1.049
-0.13018499 -0.17996296 1.0480001
-0.12992895 -0.18245184 1.046
-0.13004552 -0.18546088 1.0470001
-0.1300378 -0.1882951 1.0470001
-0.13015422 -0.19131142 1.0480001
-0.13027059 -0.19433272 1.049
-0.13305806 -0.16860054 1.0480001
-0.13279665 -0.17111266 1.046
-0.13266219 -0.17377989 1.0450001
-0.13240072 -0.17627223 1.0430001
-0.13226615 -0.17892504 1.0420001
-0.1320046 -0.18139763 1.0400001
-0.13225073 -0.18456748 1.0420001
-0.13236985 -0.18756795 1.0430001
-0.13248888 -0.19057336 1.044
-0.13260786 -0.19358382 1.0450001
-0.13272679 -0.19659929 1.046
-0.1355194 -0.16527891 1.0450001
-0.13512288 -0.16762783 1.0420001
-0.13498566 -0.17028722 1.041
-0.1348484 -0.17294082 1.0400001
-0.13471109 -0.17558859 1.039
-0.13457373 -0.17823052 1.0380001
-0.13456595 -0.18104105 1.0380001
-0.13442849 -0.18367405 1.0370001
-0.13455024 -0.18666093 1.0380001
-0.1346719 -0.18965277 1.039
-0.13479353 -0.19264963 1.0400001
-0.13491508 -0.1956515 1.041
-0.13516617 -0.19884904 1.0430001
-0.13541719 -0.20205697 1.0450001
-0.13769196 -0.16448063 1.0400001
-0.13741961 -0.16697679 1.0380001
-0.1371472 -0.16946171 1.036
-0.13700716 -0.17210172 1.0350001
-0.13686705 -0.17473587 1.034
-0.13672689 -0.17736422 1.033
-0.13671905 -0.18016116 1.033
-0.13657881 -0.18278059 1.0320001
-0.13657084 -0.18557402 1.0320001
-0.13669516 -0.18854958 1.033
-0.13695176 -0.19171537 1.0350001
-0.13707592 -0.19470365 1.036
-0.13733236 -0.19788763 1.0380001
-0.13758872 -0.20108199 1.0400001
-0.14024994 -0.16134396 1.0380001
-0.13983703 -0.16368233 1.0350001
-0.13955916 -0.16616486 1.033
-0.13955148 -0.16896333 1.033
-0.13927352 -0.17142884 1.031
-0.13913065 -0.17405215 1.0300001
-0.13912277 -0.17684129 1.0300001
-0.13911483 -0.17963004 1.0300001
-0.13910684 -0.18241839 1.0300001
-0.13896374 -0.18502656 1.029
-0.13909069 -0.18799393 1.0300001
-0.1393526 -0.19115156 1.0320001
-0.13947938 -0.19413164 1.033
-0.13947111 -0.19692616 1.033
-0.13973285 -0.20010698 1.0350001
-0.14012949 -0.20349427 1.0380001
-0.14362383 -0.15913412 1.0420001
-0.14265141 -0.16087009 1.0350001
-0.1425059 -0.16351651 1.034
-0.14208473 -0.16583546 1.031
-0.14221478 -0.16879199 1.0320001
-0.14193131 -0.17125475 1.0300001
-0.14164779 -0.17370628 1.028
-0.14150205 -0.17631827 1.0270001
-0.14135626 -0.17892446 1.026
-0.14148596 -0.18187903 1.0270001
-0.14134005 -0.18447901 1.026
-0.14146964 -0.18743823 1.0270001
-0.14159912 -0.19040242 1.028
-0.14186631 -0.1935596 1.0300001
-0.14199567 -0.19653656 1.031
-0.14212501 -0.19951858 1.0320001
-0.1425297 -0.2028977 1.0350001
-0.14279659 -0.20609388 1.0370001
-0.14616828 -0.15882105 1.0400001
-0.1453173 -0.16070695 1.034
-0.14488794 -0.16303436 1.031
-0.14445855 -0.16534512 1.028
-0.14445069 -0.16812989 1.028
-0.14430226 -0.17074804 1.0270001
-0.14415376 -0.17336036 1.026
-0.14414568 -0.17613855 1.026
-0.1439971 -0.17874198 1.0250001
-0.14398892 -0.18151668 1.0250001
-0.14384024 -0.18411119 1.024
-0.14397243 -0.18706495 1.0250001
-0.14424501 -0.1902089 1.0270001
-0.14437704 -0.19317538 1.028
-0.14436862 -0.19595627 1.028
-0.14450057 -0.19893011 1.029
-0.14505371 -0.20249707 1.033
-0.14532596 -0.20568784 1.0350001
-0.14884475 -0.15866061 1.039
-0.14826393 -0.16085461 1.0350001
-0.14782634 -0.16318467 1.0320001
-0.14724547 -0.16533725 1.028
-0.14709429 -0.16795841 1.0270001
-0.14679982 -0.17040753 1.0250001
-0.14664851 -0.17301437 1.024
-0.14649716 -0.1756154 1.023
-0.14648898 -0.17838502 1.023
-0.14633755 -0.1809772 1.0220001
-0.14618605 -0.18356355 1.021
-0.14646403 -0.1866916 1.023
-0.14674197 -0.18983009 1.0250001
-0.14687665 -0.1927911 1.026
-0.14701127 -0.19575717 1.0270001
-0.1470027 -0.19853495 1.0270001
-0.14742348 -0.20190041 1.0300001
-0.14770104 -0.205083 1.0320001
-0.15136948 -0.1583474 1.0370001
-0.15077773 -0.16053592 1.033
-0.15018596 -0.16270238 1.029
-0.14974013 -0.16500762 1.026
-0.14958616 -0.1676233 1.0250001
-0.14943212 -0.17023318 1.024
-0.14927803 -0.17283726 1.023
-0.14912388 -0.17543553 1.0220001
-0.14911561 -0.17820239 1.0220001
-0.14896135 -0.18079177 1.021
-0.14880708 -0.18337542 1.0200001
-0.14909041 -0.18650068 1.0220001
-0.14922775 -0.18945119 1.023
-0.14936507 -0.19240674 1.024
-0.14950234 -0.19536737 1.0250001
-0.14978535 -0.19852629 1.0270001
-0.15021418 -0.20189171 1.0300001
-0.15035121 -0.20487551 1.031
-0.15063404 -0.20806576 1.033
-0.153883 -0.15803412 1.0350001
-0.15328033 -0.16021717 1.031
-0.15282629 -0.16253626 1.028
-0.15237227 -0.16483875 1.0250001
-0.15236413 -0.16761518 1.0250001
-0.15205863 -0.17005876 1.023
-0.15190177 -0.17266008 1.0220001
-0.15174483 -0.1752556 1.021
-0.15173645 -0.17801969 1.021
-0.15157942 -0.18060634 1.0200001
-0.15142234 -0.18318719 1.0190001
-0.15156242 -0.18612722 1.0200001
-0.1517024 -0.18907225 1.021
-0.15184234 -0.19202234 1.0220001
-0.15213077 -0.19516806 1.024
-0.15241913 -0.19832423 1.026
-0.15285599 -0.2016869 1.029
-0.15314421 -0.20486666 1.031
-0.15343235 -0.20805688 1.033
-0.1565367 -0.15787345 1.034
-0.15607449 -0.16020913 1.031
-0.15546088 -0.16237009 1.0270001
-0.15484725 -0.16450897 1.023
-0.15483904 -0.16727991 1.023
-0.15452807 -0.16971804 1.021
-0.15451974 -0.1724828 1.021
-0.15420868 -0.17490391 1.0190001
-0.15435156 -0.17783689 1.0200001
-0.15419175 -0.18042077 1.0190001
-0.15418316 -0.18317863 1.0190001
-0.15402323 -0.18575363 1.018
-0.15416588 -0.18869324 1.0190001
-0.15430847 -0.19163789 1.0200001
-0.15460224 -0.19477814 1.0220001
-0.15489596 -0.19792885 1.024
-0.1554921 -0.20148198 1.028
-0.15593691 -0.20485774 1.031
-0.15607916 -0.20784652 1.0320001
-0.15933868 -0.15786539 1.034
-0.15886827 -0.160201 1.031
-0.15839781 -0.16252001 1.028
-0.15761918 -0.16450077 1.023
-0.15730275 -0.16694461 1.021
-0.1569863 -0.16937725 1.0190001
-0.15697789 -0.17213655 1.0190001
-0.15666133 -0.1745522 1.0170001
-0.15649877 -0.17713097 1.016
-0.15649021 -0.17988102 1.016
-0.15663563 -0.1828105 1.0170001
-0.15678093 -0.18574497 1.018
-0.15692618 -0.18868451 1.0190001
-0.1570714 -0.1916291 1.0200001
-0.15737049 -0.19476928 1.0220001
-0.15766953 -0.19791993 1.024
-0.15812248 -0.20127706 1.0270001
-0.15842137 -0.20445134 1.029
-0.15887414 -0.20783745 1.0320001
-0.16277573 -0.15565501 1.0380001
-0.16198348 -0.15770456 1.033
-0.16134809 -0.15988205 1.029
-0.16086943 -0.16219558 1.026
-0.16023397 -0.16433169 1.0220001
-0.16006881 -0.16693623 1.021
-0.15974687 -0.16936886 1.0190001
-0.1595816 -0.17195913 1.018
-0.15925957 -0.17437205 1.016
-0.15909424 -0.17694809 1.0150001
-0.1590856 -0.17969537 1.0150001
-0.15923361 -0.18262203 1.016
-0.15938158 -0.18555379 1.0170001
-0.15968616 -0.18867567 1.0190001
-0.159834 -0.19162023 1.0200001
-0.15998174 -0.19456978 1.021
-0.16028611 -0.19771768 1.023
-0.16074711 -0.20107202 1.026
-0.16105133 -0.20424354 1.028
-0.16151215 -0.20762689 1.031
-0.16542836 -0.1554969 1.0370001
-0.1643035 -0.15723839 1.0300001
-0.16397619 -0.15971842 1.028
-0.16348937 -0.16202919 1.0250001
-0.16300246 -0.1643233 1.0220001
-0.16267507 -0.16676435 1.0200001
-0.16250709 -0.16936037 1.0190001
-0.16233905 -0.17195059 1.018
-0.16201147 -0.17436343 1.016
-0.16184336 -0.17693941 1.0150001
-0.16183466 -0.17968665 1.0150001
-0.16198529 -0.18261325 1.016
-0.16213588 -0.18554492 1.0170001
-0.16244581 -0.18866679 1.0190001
-0.16275567 -0.19179912 1.021
-0.16306543 -0.19494189 1.023
-0.16321574 -0.19790186 1.024
-0.16352537 -0.2010629 1.026
-0.16383494 -0.20423435 1.028
-0.16446318 -0.20781907 1.0320001
-0.16839966 -0.15563861 1.0380001
-0.16709355 -0.15723012 1.0300001
-0.16676073 -0.15971008 1.028
-0.1662657 -0.16202079 1.0250001
-0.1659328 -0.16447562 1.023
-0.16559988 -0.16691929 1.021
-0.16526693 -0.16935177 1.0190001
-0.16525829 -0.17211087 1.0190001
-0.1650874 -0.17469798 1.018
-0.1649165 -0.17727932 1.0170001
-0.16490766 -0.1800319 1.0170001
-0.1648988 -0.18278416 1.0170001
-0.16488987 -0.18553603 1.0170001
-0.165043 -0.18847266 1.018
-0.16535822 -0.19160224 1.0200001
-0.16567332 -0.19474223 1.0220001
-0.16598837 -0.19789274 1.024
-0.16646543 -0.20124967 1.0270001
-0.16694242 -0.20462248 1.0300001
-0.16758136 -0.20821248 1.034
-0.17104612 -0.15548034 1.0370001
-0.17004813 -0.15737441 1.031
-0.16970985 -0.15985702 1.029
-0.16920659 -0.16217035 1.026
-0.16919804 -0.1649494 1.026
-0.1686947 -0.16723765 1.023
-0.16835622 -0.1696755 1.021
-0.16801773 -0.17210214 1.0190001
-0.16784407 -0.17468919 1.018
-0.16767035 -0.17727049 1.0170001
-0.16766146 -0.18002301 1.0170001
-0.16781735 -0.18295492 1.018
-0.16780835 -0.18570943 1.018
-0.16796412 -0.18864875 1.0190001
-0.16795501 -0.19140528 1.0190001
-0.16844031 -0.19473308 1.0220001
-0.16876067 -0.1978835 1.024
-0.16924579 -0.20124039 1.0270001
-0.16973081 -0.20461313 1.0300001
-0.17038052 -0.20820306 1.034
-0.17402212 -0.15562192 1.0380001
-0.17317541 -0.15767127 1.033
-0.17266402 -0.1600039 1.0300001
-0.17215253 -0.16231987 1.0270001
-0.17214392 -0.16510156 1.0270001
-0.1718 -0.16755594 1.0250001
-0.1712884 -0.16983296 1.0220001
-0.17077681 -0.17209336 1.0190001
-0.17076793 -0.17485195 1.0190001
-0.17042388 -0.17726158 1.0170001
-0.17041491 -0.18001406 1.0170001
-0.17040589 -0.18276618 1.0170001
-0.17073192 -0.18588281 1.0190001
-0.17072278 -0.18863963 1.0190001
-0.17088112 -0.19158393 1.0200001
-0.17137444 -0.19491436 1.023
-0.17186767 -0.19826066 1.026
-0.17236082 -0.2016229 1.029
-0.17268638 -0.20480233 1.031
-0.17301188 -0.20799224 1.033
-0.17597245 -0.15766276 1.033
-0.17545286 -0.15999532 1.0300001
-0.17510353 -0.16246928 1.028
-0.17492451 -0.16509286 1.0270001
-0.17422563 -0.16999032 1.023
-0.17370585 -0.17225339 1.0200001
-0.1735266 -0.17484303 1.0190001
-0.17334732 -0.1774269 1.018
-0.17367886 -0.18053603 1.0200001
-0.17366974 -0.18329622 1.0200001
-0.17383082 -0.18623845 1.021
-0.17365135 -0.18881555 1.0200001
-0.1738123 -0.19176248 1.021
-0.17431369 -0.19509557 1.024
-0.17464474 -0.19825128 1.026
-0.17497572 -0.20141752 1.028
-0.17530665 -0.20459421 1.0300001
-0.17580768 -0.2079827 1.033
-0.17894216 -0.1578068 1.034
-0.17841436 -0.16014199 1.031
-0.17805955 -0.16261862 1.029
-0.17787774 -0.1652448 1.028
-0.17663991 -0.1724133 1.021
-0.17645791 -0.17500561 1.0200001
-0.17627588 -0.17759216 1.0190001
-0.1766127 -0.18070388 1.021
-0.17660353 -0.18346672 1.021
-0.17659427 -0.1862292 1.021
-0.17641206 -0.18880628 1.0200001
-0.17657568 -0.19175318 1.021
-0.17725803 -0.19527669 1.0250001
-0.17776735 -0.19862828 1.028
-0.1782766 -0.20199579 1.031
-0.17861281 -0.20518053 1.033
-0.17877612 -0.20817447 1.034
-0.18138091 -0.1602886 1.0320001
-0.18084489 -0.16260985 1.029
-0.18048456 -0.16507523 1.0270001
-0.17976379 -0.16997246 1.023
-0.17940335 -0.1724043 1.021
-0.17939427 -0.17516811 1.021
-0.17938517 -0.17793158 1.021
-0.17937596 -0.1806947 1.021
-0.17954241 -0.1836372 1.0220001
-0.17953311 -0.18640232 1.0220001
-0.17952372 -0.18916711 1.0220001
-0.17951433 -0.19193159 1.0220001
-0.18003181 -0.19526725 1.0250001
-0.18037356 -0.19842558 1.0270001
-0.18106648 -0.20198619 1.031
-0.18140809 -0.20517091 1.033
-0.1848879 -0.16090107 1.036
-0.18416522 -0.16307509 1.0320001
-0.1834425 -0.16522704 1.028
-0.18252325 -0.17273293 1.023
-0.18215731 -0.17515898 1.021
-0.18196973 -0.17774813 1.0200001
-0.18213889 -0.18068545 1.021
-0.18248634 -0.18380752 1.023
-0.18247694 -0.18657531 1.023
-0.18228917 -0.18915771 1.0220001
-0.18245807 -0.19210991 1.023
-0.18298361 -0.19544819 1.026
-0.18350905 -0.19880238 1.029
-0.18403439 -0.20217247 1.0320001
-0.18455967 -0.20555846 1.0350001
-0.18658668 -0.16553955 1.0300001
-0.18547256 -0.17289266 1.024
-0.18510112 -0.17532136 1.0220001
-0.18491077 -0.17791316 1.021
-0.18472038 -0.1804992 1.0200001
-0.18507321 -0.18361852 1.0220001
-0.18524486 -0.18656591 1.023
-0.18541646 -0.18951841 1.024
-0.18576907 -0.19266376 1.026
-0.18612158 -0.19581959 1.028
-0.18665506 -0.1991791 1.031
-0.18700741 -0.20235866 1.033
-0.18879457 -0.17338996 1.0270001
-0.18823379 -0.17565517 1.024
-0.18804066 -0.17825232 1.023
-0.18803132 -0.18102069 1.023
-0.18838947 -0.18414806 1.0250001
-0.18856378 -0.18710352 1.026
-0.18892176 -0.19024913 1.028
-0.18891214 -0.1930297 1.028
-0.18945377 -0.19638136 1.031
-0.1899953 -0.19974893 1.034
-0.19212309 -0.17667507 1.0300001
-0.1917406 -0.17911415 1.028
-0.19173114 -0.18189597 1.028
-0.19172165 -0.1846775 1.028
-0.19189858 -0.18764104 1.029
-0.19226192 -0.19079469 1.031
-0.20983602 -0.17266649 1.0930001
-0.21358033 -0.17031792 1.097
-0.21279189 -0.1726568 1.0930001
-0.21219812 -0.17513436 1.09
-0.21140967 -0.17743197 1.0860001
-0.21042652 -0.17954148 1.0810001
-0.20983271 -0.18196116 1.0780001
-0.20962815 -0.18470728 1.077
-0.20942357 -0.1874477 1.0760001
-0.20901422 -0.19291119 1.074
-0.20900412 -0.19581665 1.074
-0.20899397 -0.19872181 1.074
-0.20937298 -0.20200214 1.0760001
-0.20975186 -0.2052929 1.0780001
-0.20974153 -0.20820788 1.0780001
-0.20973121 -0.21112259 1.0780001
-0.21654665 -0.17030825 1.097
-0.21554999 -0.17248911 1.092
-0.21514545 -0.17512459 1.09
-0.21434614 -0.17742215 1.0860001
-0.21374418 -0.1798638 1.0830001
-0.2135369 -0.18262643 1.082
-0.21332958 -0.18538332 1.0810001
-0.21351688 -0.18848285 1.082
-0.21311213 -0.19105677 1.08
-0.21310198 -0.19397877 1.08
-0.21269719 -0.1965358 1.0780001
-0.21268697 -0.19945171 1.0780001
-0.2126767 -0.20236732 1.0780001
-0.21266639 -0.20528257 1.0780001
-0.21285333 -0.20839068 1.079
-0.21284296 -0.21130803 1.079
-0.21951261 -0.17029855 1.097
-0.21850237 -0.17247936 1.092
-0.21809243 -0.1751148 1.09
-0.21748233 -0.17757565 1.087
-0.21707228 -0.18018602 1.085
-0.21646214 -0.18261644 1.082
-0.21625212 -0.18537331 1.0810001
-0.216042 -0.1881244 1.08
-0.21603188 -0.19104663 1.08
-0.21562167 -0.19360937 1.0780001
-0.21581148 -0.19670787 1.079
-0.21560124 -0.19944145 1.0780001
-0.21559095 -0.20235702 1.0780001
-0.21558063 -0.20527224 1.0780001
-0.22206281 -0.17294343 1.095
-0.22144459 -0.17542624 1.092
-0.22062357 -0.17772913 1.0880001
-0.2200053 -0.18017608 1.085
-0.21938705 -0.18260649 1.082
-0.21917428 -0.18536326 1.0810001
-0.21875867 -0.18794011 1.079
-0.21874857 -0.1908596 1.079
-0.21853568 -0.19359921 1.0780001
-0.21852545 -0.19651535 1.0780001
-0.2185152 -0.19943118 1.0780001
-0.21850489 -0.20234668 1.0780001
-0.21849453 -0.2052619 1.0780001
-0.21848418 -0.20817681 1.0780001
-0.22439624 -0.17541637 1.092
-0.22376987 -0.17788255 1.0890001
-0.22314347 -0.18033218 1.0860001
-0.2223116 -0.18259647 1.082
-0.22189064 -0.18518174 1.08
-0.22146966 -0.18775584 1.0780001
-0.22145951 -0.19067256 1.0780001
-0.22124392 -0.19340941 1.077
-0.22143911 -0.1965051 1.0780001
-0.2212234 -0.19923587 1.077
-0.22121309 -0.20214865 1.077
-0.22140814 -0.20525154 1.0780001
-0.22139777 -0.20816642 1.0780001
-0.22776394 -0.17572773 1.0940001
-0.22671306 -0.17787263 1.0890001
-0.22607853 -0.18032219 1.0860001
-0.22565216 -0.18292396 1.0840001
-0.22522573 -0.18551457 1.082
-0.22500747 -0.18826821 1.0810001
-0.22478917 -0.19101614 1.08
-0.2245708 -0.19375834 1.079
-0.22414429 -0.19631253 1.077
-0.22392595 -0.19904062 1.0760001
-0.22370751 -0.20176294 1.075
-0.22432145 -0.20524116 1.0780001
-0.22431107 -0.208156 1.0780001
-0.22986671 -0.17802596 1.09
-0.22922407 -0.1804782 1.087
-0.22879228 -0.18308263 1.085
-0.22814961 -0.18550445 1.082
-0.22792861 -0.18825805 1.0810001
-0.22770759 -0.19100595 1.08
-0.22769736 -0.19392766 1.08
-0.22747628 -0.19666682 1.079
-0.22683352 -0.19903031 1.0760001
-0.22682321 -0.20194033 1.0760001
-0.22702365 -0.20504038 1.077
-0.22764561 -0.20853174 1.08
-0.23345268 -0.17850594 1.0930001
-0.23258831 -0.18080024 1.0890001
-0.23215105 -0.18341 1.087
-0.2317138 -0.18600865 1.085
-0.23127654 -0.18859617 1.0830001
-0.23105277 -0.19134942 1.082
-0.23104253 -0.19427651 1.082
-0.23060519 -0.19683877 1.08
-0.23016785 -0.19938993 1.0780001
-0.23015751 -0.2023053 1.0780001
-0.23057415 -0.20560114 1.08
-0.23595287 -0.1840748 1.0910001
-0.23529391 -0.18651281 1.0880001
-0.23463494 -0.18893427 1.085
-0.23419225 -0.19151604 1.0830001
-0.23396572 -0.19426624 1.082
-0.23395541 -0.19719298 1.082
-0.2339451 -0.20011942 1.082
-0.23415095 -0.20323326 1.0830001
-0.23435675 -0.20635219 1.0840001
-0.23822279 -0.18944643 1.0880001
-0.2375557 -0.19185947 1.085
-0.23732653 -0.19461507 1.0840001
-0.2375351 -0.19772938 1.085
-0.23752478 -0.20066392 1.085
-0.23773329 -0.20378581 1.0860001
-0.24114105 -0.19532287 1.0880001
